ply
format ascii 1.0
element vertex 1055
property float x
property float y
property float z
property uchar red
property uchar green
property uchar blue
end_header
0.213558 -3.828681 -6.390537 157 114 76
0.101672 -3.056750 -6.843109 140 98 54
0.101672 -3.056750 -6.843109 144 103 59
-0.042509 2.686501 3.400590 124 80 42
0.057736 0.925062 2.223334 123 79 43
0.306943 -14.258237 -21.548704 122 78 42
-0.017639 3.192491 4.973991 127 83 44
-0.017639 3.192491 4.973991 126 82 47
-0.014572 -3.136291 -7.577185 119 76 43
-0.014572 -3.136291 -7.577185 120 77 41
0.018073 -0.377951 -1.212382 106 64 30
0.101739 0.913072 2.174634 130 84 50
0.112672 0.898808 2.166892 120 78 41
0.042896 1.175444 1.728040 138 91 62
0.152962 0.901468 2.125406 110 66 32
-0.298464 -4.113834 -7.374948 137 91 57
-0.298464 -4.113834 -7.374948 161 121 93
0.180732 0.797598 1.962482 136 98 72
0.071207 1.277756 1.662254 135 91 54
0.075038 1.304806 1.646880 155 106 76
0.190578 0.853038 2.088555 157 106 77
0.103322 0.834240 1.885958 123 80 44
0.090566 1.300568 1.642265 114 74 46
0.090566 1.300568 1.642265 118 82 61
-0.090982 -1.130730 -1.601442 152 105 70
-0.090206 -1.147541 -1.553317 127 74 49
0.221426 0.778488 1.838288 135 94 65
0.220161 0.852484 2.057863 166 105 71
0.100729 1.297462 1.639328 148 111 82
0.225308 0.833322 1.890246 167 115 80
0.118741 0.886306 1.835994 158 117 84
0.145107 1.047803 2.238440 141 101 76
0.119266 1.066268 1.742956 158 120 91
0.189232 1.584076 2.654105 125 76 54
0.189232 1.584076 2.654105 164 100 67
0.129124 1.071891 1.736342 145 102 76
0.131966 1.144626 1.698427 145 102 76
0.139043 1.131153 1.702940 148 95 72
0.184333 0.266164 2.031899 131 76 53
0.297745 0.833474 2.035549 135 88 61
0.159565 1.089210 1.717103 111 71 37
0.160205 1.087746 1.719138 114 74 39
0.193760 0.273700 2.028100 130 82 60
0.292882 0.792076 1.984287 96 52 41
0.274215 1.235395 2.702147 136 89 64
0.185164 0.915273 1.796447 113 60 27
0.185164 0.915273 1.796447 183 144 127
-0.187513 -1.149979 -1.790215 113 69 47
0.245468 1.421429 2.280181 107 66 54
0.275340 1.312105 2.549439 151 109 81
0.344408 0.837397 2.089334 108 60 41
0.344408 0.837397 2.089334 176 114 86
0.194952 0.922497 1.788501 165 124 92
0.191641 1.004866 1.749629 174 120 99
0.191641 1.004866 1.749629 133 87 65
0.202782 0.809692 1.850646 162 124 107
0.185539 1.124116 1.690956 159 122 104
-0.198066 -1.190662 -1.811598 105 61 55
0.211413 0.688987 1.910492 139 90 75
0.193810 1.123036 1.690128 154 110 73
0.193810 1.123036 1.690128 135 88 75
0.215255 0.915508 1.791431 135 88 73
0.218565 0.927801 1.779889 161 121 90
0.211519 1.046845 1.719898 154 118 91
0.218731 0.933945 1.778322 155 115 91
0.223273 0.930414 1.778437 143 107 84
0.287344 1.423369 2.275796 133 93 77
0.218550 1.067073 1.703373 137 99 82
0.225299 1.004481 1.740007 128 99 86
0.224849 1.007827 1.735443 146 104 83
0.231820 0.928152 1.776132 138 108 92
0.242089 0.776800 1.849280 167 127 107
0.225210 1.098632 1.695625 136 97 70
0.230167 1.040526 1.723664 101 69 50
0.413780 0.859972 2.167472 156 114 96
0.237346 0.924148 1.777252 129 87 56
0.367229 0.409728 2.708849 150 105 78
0.315583 1.531710 2.286066 132 96 81
0.239153 1.052394 1.713661 132 97 82
-1.988718 -6.317710 -14.202033 138 97 75
0.251909 0.915555 1.779157 138 93 50
0.309222 0.558331 1.535200 141 103 73
0.288291 0.252823 2.005187 113 78 50
0.243454 1.113608 1.680342 134 98 75
0.446341 0.878090 2.208438 175 124 89
0.285430 0.337491 1.967521 140 102 83
0.258150 0.946101 1.773330 154 122 101
0.274911 0.683946 1.879531 116 95 83
0.250795 1.076776 1.695738 169 103 55
0.248473 1.120735 1.676264 138 117 99
-1.177307 -1.647753 -7.991699 121 86 68
0.255502 1.039938 1.714389 128 68 31
0.258358 1.001524 1.733056 185 131 94
0.255465 1.078946 1.692951 142 104 71
0.271429 0.906673 1.777954 145 104 70
0.265835 0.990053 1.735634 126 85 55
0.262081 1.044642 1.708239 116 71 37
0.282715 0.804868 1.840111 153 110 87
0.277030 0.858646 1.798722 166 127 99
0.265718 1.021009 1.719218 161 117 92
0.262269 1.081354 1.691808 167 136 108
0.268477 1.039021 1.713033 162 117 91
0.282518 0.899344 1.778537 145 107 76
0.269240 1.073917 1.693956 143 103 71
0.288827 0.848953 1.801252 184 131 91
0.330553 0.260184 1.996359 132 93 63
0.279356 1.085427 1.687593 117 81 55
0.283789 1.038941 1.705641 146 108 77
0.300253 0.856452 1.794504 118 77 43
0.331480 0.301399 1.972661 178 102 55
0.369558 1.128719 2.189705 115 70 40
0.291764 1.019751 1.710010 152 106 73
0.377747 1.120653 2.193788 154 105 64
0.379464 1.115808 2.196980 142 102 72
0.379464 1.115808 2.196980 131 95 72
0.380474 1.130285 2.187209 108 62 32
0.348632 0.256684 1.994885 106 61 32
0.310431 0.905785 1.765690 133 80 43
0.389847 1.113152 2.198226 143 100 71
0.321682 0.838690 1.801094 126 89 66
0.307515 1.017549 1.709407 114 73 44
0.311088 0.991201 1.726730 193 128 69
0.306686 1.050987 1.697923 189 100 52
0.400013 1.112095 2.198457 86 54 31
0.314853 1.075331 1.684365 144 91 46
0.341047 0.796281 1.812523 145 96 61
0.338830 0.853914 1.789770 111 73 38
0.338830 0.853914 1.789770 114 73 49
0.312851 0.971332 1.622221 143 74 39
0.333642 0.989198 1.718429 138 85 46
0.403136 0.572589 1.420671 172 101 66
0.466861 0.673395 1.572858 134 90 60
0.367329 0.678318 1.865943 178 155 135
-2.996649 -3.620264 -15.060281 168 108 59
0.339724 1.050044 1.693654 91 55 32
0.339724 1.050044 1.693654 126 80 50
0.353865 0.910901 1.760174 147 101 56
0.341514 1.036258 1.698488 112 74 42
0.341839 1.063184 1.683778 146 93 54
0.462204 0.726059 1.708274 141 95 100
0.358765 0.906742 1.759330 185 128 93
0.339078 1.112334 1.661225 151 99 58
0.339078 1.112334 1.661225 133 96 70
-0.480770 -1.014713 -2.348281 143 92 123
0.364031 0.910516 1.759049 130 101 81
0.410527 0.300237 1.957953 119 72 38
0.410527 0.300237 1.957953 174 141 122
0.370375 0.905075 1.760130 93 59 41
0.354023 1.070746 1.679273 106 67 37
0.361992 0.992902 1.716715 160 103 58
0.362608 0.987674 1.719434 147 93 49
0.372163 0.892247 1.763195 167 115 74
0.420677 0.259557 1.982172 135 79 41
0.359190 1.048725 1.689858 99 58 29
0.376103 0.905572 1.758683 115 71 44
0.360922 1.064284 1.680118 138 92 83
0.357743 1.108669 1.656301 189 145 122
0.371897 0.992216 1.713583 144 95 56
0.372333 0.989087 1.714648 163 94 59
0.369950 1.009559 1.703173 85 51 35
0.369720 1.031340 1.696439 124 83 102
-0.545316 -1.661079 -2.485246 157 126 101
0.364560 1.108264 1.658428 157 126 101
0.369194 1.071380 1.675746 101 62 33
0.374075 1.066858 1.677391 88 52 28
0.406692 0.765093 1.823506 86 54 30
0.394407 0.912656 1.751545 112 68 36
0.405780 0.870213 1.777697 103 62 32
0.432035 0.549456 1.473952 165 107 58
0.443151 0.356032 1.934821 174 135 105
0.402793 0.901065 1.755402 174 135 105
0.386647 1.062957 1.677377 104 65 37
0.386647 1.062957 1.677377 162 144 77
0.382311 1.106579 1.656425 151 82 48
0.382766 1.101699 1.657715 149 115 94
0.388505 1.047420 1.682273 163 125 100
8.877340 16.994627 38.238025 104 66 39
0.397999 1.003685 1.705973 121 92 76
0.410780 0.902690 1.755510 156 117 101
0.410780 0.902690 1.755510 156 117 101
0.412168 0.888984 1.761405 101 65 37
0.455617 0.334680 1.944603 138 107 86
0.412457 0.895712 1.757877 148 105 67
0.388713 1.106589 1.655928 140 101 71
0.456194 0.347295 1.937686 155 106 72
0.456194 0.347295 1.937686 156 122 98
0.466603 0.286059 1.967793 150 117 93
0.418167 0.907555 1.749789 165 94 61
0.419117 0.933531 1.747049 165 94 61
0.423224 0.902279 1.753269 106 78 61
0.423224 0.902279 1.753269 162 117 96
0.500407 0.668285 1.513503 161 116 96
0.425317 0.892755 1.758394 84 52 31
0.440870 0.787946 1.819261 132 95 73
0.404903 1.082457 1.659049 141 105 76
0.412713 1.044271 1.682223 111 77 50
1.336183 2.562971 5.246772 148 96 63
0.441161 0.831579 1.791080 127 96 76
0.418920 1.005472 1.698594 144 98 66
0.423482 0.987447 1.709000 116 71 39
0.415927 1.061214 1.673998 139 104 79
0.415770 1.058662 1.670976 105 75 51
0.419843 1.057371 1.675520 172 120 72
0.469107 0.679943 1.860313 106 71 52
0.448562 0.843673 1.777799 133 87 49
0.448562 0.843673 1.777799 54 31 14
0.497919 0.263012 1.971459 92 58 36
-4.391923 -12.609956 -17.445649 97 71 54
0.469465 0.538922 1.473831 141 97 29
0.493195 0.327360 1.944152 179 123 41
0.493195 0.327360 1.944152 91 65 48
0.431879 1.015785 1.692128 124 81 44
0.496142 0.339493 1.938816 148 97 60
0.430971 1.041727 1.676040 102 61 34
0.424583 1.104245 1.651104 170 103 60
0.430739 1.055903 1.674117 103 61 33
0.434838 0.873551 1.688155 107 69 49
0.409627 1.232351 1.590106 116 88 66
0.427901 1.092790 1.656418 124 80 47
0.462251 0.820776 1.788242 172 117 80
0.470546 0.762766 1.818734 165 94 53
0.470546 0.762766 1.818734 164 93 52
0.432688 1.062050 1.672024 132 109 98
0.461334 0.845836 1.777257 157 141 129
0.454375 0.930497 1.740886 190 110 60
0.456470 0.905743 1.747089 160 89 47
0.456470 0.905743 1.747089 142 78 40
0.474883 0.810525 1.793491 160 86 44
0.439733 1.099814 1.652259 173 140 121
0.440225 1.095125 1.653896 111 72 40
0.456089 0.978686 1.709182 79 48 30
0.468448 0.910850 1.744898 129 96 67
0.457761 0.999709 1.693155 129 95 67
0.474727 0.663991 1.261039 144 99 71
0.532035 0.274058 1.966284 148 101 71
0.474287 0.899355 1.752023 160 92 50
0.454809 1.049900 1.673764 143 132 127
0.530928 0.321136 1.944092 118 93 75
0.518719 0.426983 1.898521 171 102 57
0.482114 0.661404 1.262378 170 97 53
0.481765 0.664562 1.260773 171 102 58
0.548296 0.758510 1.453531 184 132 103
0.488532 0.885659 1.755967 156 110 90
0.466087 1.056699 1.671453 157 140 128
0.463062 1.082342 1.658473 155 140 128
0.556313 0.255569 1.973926 174 101 58
0.449362 1.220548 1.593481 129 85 55
0.480728 1.039723 1.702957 167 151 137
0.482262 0.984785 1.706847 157 91 52
0.479075 1.015255 1.689264 128 113 104
0.557597 0.762058 1.450175 149 128 112
0.551303 0.335701 1.940698 163 142 127
0.551303 0.335701 1.940698 203 153 110
0.495208 0.906886 1.744684 191 151 120
0.551494 0.328581 1.942120 159 95 55
0.551494 0.328581 1.942120 141 124 111
0.576623 0.647782 1.497947 108 65 36
0.507841 0.811385 1.785960 72 37 17
0.481637 1.019187 1.690847 102 85 75
0.385924 0.884224 1.351302 76 48 29
0.485527 0.989842 1.703176 162 145 134
0.496441 0.926382 1.738596 129 79 42
0.455662 1.222485 1.591136 167 99 67
0.533079 0.676495 1.856322 167 99 67
-0.731238 -1.532470 -2.533706 144 123 106
0.391107 0.840805 1.343185 185 152 133
0.522354 0.762766 1.813185 151 127 116
0.460736 1.218055 1.593877 129 114 101
0.492589 0.980313 1.702534 129 114 101
0.477251 1.098684 1.649447 160 144 131
0.477251 1.098684 1.649447 151 117 91
0.490030 1.002245 1.692683 130 85 57
0.483878 1.053169 1.667655 166 96 56
0.499010 1.110583 1.706859 108 88 78
0.568489 0.760884 1.449538 108 88 78
0.511013 0.888531 1.753538 148 118 97
0.510094 0.891665 1.749587 168 129 103
0.510094 0.891665 1.749587 174 152 133
0.522500 0.808822 1.787382 174 152 133
-0.647687 -1.361603 -2.214995 100 63 33
0.465184 1.224158 1.590709 174 139 121
0.512490 0.896260 1.749722 130 114 102
0.484830 1.077769 1.655223 130 114 102
0.523709 0.824132 1.783151 112 76 57
0.558056 0.426484 1.898156 97 66 45
0.575937 0.297590 1.956184 115 87 72
0.569470 0.344764 1.933763 60 41 25
0.485422 1.102525 1.647626 64 46 28
0.574512 0.322648 1.947072 166 91 57
0.487529 1.095574 1.651568 133 115 103
0.515785 0.893925 1.745965 118 105 98
0.631412 0.841850 2.127558 156 139 127
0.529066 0.815443 1.789802 151 134 122
0.504550 0.980553 1.706598 151 134 122
0.631927 0.840171 2.124779 160 143 134
0.519376 0.885994 1.753732 117 72 43
0.489722 1.099201 1.649135 148 73 39
-4.709406 -4.710789 -15.742877 101 67 44
-5.132382 -5.179689 -17.128260 139 121 109
0.569402 0.425782 1.899297 168 150 138
0.506358 1.027087 1.683636 164 148 137
0.671050 0.725807 1.830126 144 133 126
0.561564 0.648825 1.860907 74 40 19
0.509791 1.015662 1.689207 90 57 41
0.594519 0.276756 1.966349 102 89 86
0.536868 0.844798 1.771883 147 86 53
0.518264 0.659074 1.263888 86 74 68
0.545829 0.811781 1.790448 113 69 37
0.580819 0.424447 1.897320 146 134 126
0.580819 0.424447 1.897320 128 115 112
0.637686 0.888044 2.073100 148 87 58
0.522236 1.018789 1.687890 79 66 63
0.523697 1.015370 1.689747 125 114 110
0.516428 1.062305 1.664619 167 107 87
0.613420 0.264450 1.972482 132 120 114
0.514651 1.088788 1.652430 129 119 118
0.525496 1.018407 1.686953 60 49 46
0.525496 1.018407 1.686953 174 131 111
0.556045 0.821463 1.783355 140 121 113
0.604110 0.353875 1.933862 150 102 65
0.605750 0.344687 1.935402 135 111 99
0.523854 1.052206 1.671851 151 137 131
0.598910 0.432809 1.908265 102 71 56
0.529018 1.028316 1.681562 108 69 42
0.552805 0.539713 1.445596 154 140 135
0.528643 1.050769 1.672312 165 143 139
0.601091 0.423275 1.901081 145 74 40
0.612942 0.325668 1.937599 118 76 51
0.615206 0.349416 1.934585 143 134 131
0.615206 0.349416 1.934585 103 59 33
0.615994 0.341811 1.934819 96 59 37
0.540131 1.019787 1.687270 97 59 37
0.540131 1.019787 1.687270 128 108 93
0.569784 0.826257 1.779778 167 86 41
0.533117 1.090729 1.652971 122 76 44
0.575505 0.836776 1.776281 151 89 60
0.535733 1.094478 1.652181 114 74 51
0.541048 1.100940 1.647656 146 134 127
0.548401 1.057791 1.668959 170 106 77
0.612159 0.413500 1.850641 116 83 56
0.603114 0.791462 1.806262 150 63 24
1.596457 3.267573 4.551048 127 83 52
0.445573 0.695425 1.137305 161 75 31
0.605877 0.832966 1.778830 99 65 40
0.605877 0.832966 1.778830 100 61 35
0.605876 0.833102 1.778782 97 59 35
0.605876 0.833102 1.778782 95 69 58
0.659628 0.410043 1.933054 156 140 131
0.624853 0.814421 1.790256 90 52 28
0.683550 0.333970 1.946811 166 135 122
0.683550 0.333970 1.946811 168 127 93
0.639585 0.764435 1.815519 75 41 20
0.594981 1.024766 1.687821 194 121 92
0.594981 1.024766 1.687821 150 85 59
0.689023 0.340401 1.951435 155 135 129
0.635861 0.836534 1.780984 118 75 38
0.635861 0.836534 1.780984 99 62 39
0.704948 0.349957 1.944062 64 39 23
1.041006 1.082299 2.805304 125 114 105
0.708812 0.338381 1.949412 49 37 28
0.651762 0.834695 1.784711 74 59 52
0.657672 0.824480 1.789217 97 70 60
1.132138 2.506176 2.983532 79 63 55
0.715090 0.376353 1.933559 76 60 52
0.669121 0.816837 1.789162 186 134 111
0.725903 0.372973 1.937137 185 136 111
0.602200 1.198171 1.606895 112 102 98
0.683656 0.781789 1.818556 148 108 48
0.684117 0.780278 1.816231 114 100 93
0.730325 0.382594 1.934586 103 89 83
0.736195 0.349153 1.948361 110 75 48
0.603234 1.227181 1.593486 95 71 48
0.606981 1.222422 1.594971 156 136 109
-1.453278 -1.524377 -3.687697 103 68 57
0.610996 1.211575 1.604143 180 112 88
0.611532 1.207667 1.604244 156 130 121
0.613132 1.198978 1.608115 156 130 121
0.612987 1.203417 1.606416 85 68 67
0.612987 1.203417 1.606416 209 199 198
0.612987 1.203417 1.606416 131 123 122
0.727598 0.452030 1.902473 173 140 125
0.731151 0.433596 1.910405 138 109 89
0.628802 0.657093 1.281355 237 187 168
0.615994 1.216049 1.600728 243 223 220
0.615994 1.216049 1.600728 91 77 76
0.614651 1.224027 1.596947 67 56 45
0.615884 1.220280 1.599382 69 43 30
0.718480 0.690961 1.856490 129 114 105
0.745074 0.408449 1.924436 182 113 80
0.745074 0.408449 1.924436 173 101 61
0.622197 1.202471 1.606244 108 64 43
0.622197 1.202471 1.606244 190 128 98
0.738379 0.450305 1.904877 192 133 113
0.741296 0.435771 1.912236 194 163 150
0.619413 1.228537 1.595906 83 71 74
0.709062 0.774524 1.826545 63 46 31
0.624643 1.199661 1.608992 101 77 75
0.745839 0.424016 1.917162 76 60 47
0.751573 0.412090 1.925526 162 112 87
0.745442 0.445652 1.908357 237 193 181
0.747412 0.436484 1.913100 146 74 44
0.627265 1.217149 1.601830 195 106 66
0.630479 1.204146 1.607888 115 88 67
0.630479 1.204146 1.607888 156 91 63
0.627828 1.221472 1.601143 116 104 93
0.625651 1.233718 1.594882 128 117 105
0.625651 1.233718 1.594882 168 110 83
0.626779 1.229563 1.597114 179 115 87
0.626779 1.229563 1.597114 169 85 48
0.749572 0.453242 1.906396 166 153 152
0.749572 0.453242 1.906396 48 35 20
0.754076 0.435594 1.914250 126 72 50
0.754076 0.435594 1.914250 165 103 74
0.754076 0.435594 1.914250 165 91 56
0.767647 0.363575 1.946816 204 185 176
0.635211 1.205896 1.609418 185 141 117
0.635822 1.200920 1.610421 208 167 151
0.756604 0.447026 1.910611 163 157 151
0.606782 0.534961 1.317347 134 125 125
0.640926 1.202184 1.611113 208 175 152
0.640109 1.210258 1.607848 200 149 130
0.639602 1.214043 1.605048 166 148 135
0.639602 1.214043 1.605048 196 131 103
0.765529 0.433271 1.919193 196 154 139
0.780231 0.355425 1.955244 74 58 50
0.770688 0.412449 1.927853 219 174 159
0.742540 0.715224 1.855194 193 151 134
0.735263 0.756469 1.834570 186 142 123
0.769872 0.448092 1.913319 91 67 51
0.780931 0.395418 1.940646 49 35 24
0.775567 0.419371 1.926597 49 35 24
0.789540 0.348865 1.960201 87 68 58
0.773404 0.433996 1.918859 180 135 115
0.676232 1.019194 1.625497 148 99 77
0.676232 1.019194 1.625497 62 46 36
0.776780 0.457355 1.909096 182 129 106
0.751328 0.737178 1.845851 168 105 77
0.783190 0.453273 1.912511 177 102 68
0.799989 0.413210 1.933875 145 71 36
1.388750 1.481755 3.336792 135 120 114
1.388750 1.481755 3.336792 113 100 92
4.895269 5.453418 9.576493 186 115 84
3.255053 4.771419 5.926401 189 145 128
2.055707 2.270962 3.649994 189 145 128
1.182449 0.194822 1.924447 143 79 52
1.102525 0.852774 1.673235 183 121 96
0.647491 0.525559 0.906286 129 115 112
0.991998 0.637662 1.512304 49 37 27
-7.897315 -7.148803 -11.991577 155 84 53
-5.624993 -3.868328 -8.514507 152 109 91
0.963706 0.776361 1.456389 152 109 91
0.967372 0.772453 1.454477 167 108 85
1.092095 1.108509 1.635845 157 143 136
1.477795 1.445478 2.206756 170 103 77
5.685983 4.349644 8.440506 154 113 91
5.685983 4.349644 8.440506 159 106 80
1.353119 0.629363 2.009282 126 115 106
1.471977 1.475356 2.186497 150 130 122
1.489839 1.445973 2.208285 136 115 106
1.732118 1.623003 2.566903 80 60 47
1.484668 1.460237 2.199167 57 45 34
1.484668 1.460237 2.199167 106 69 49
1.361058 0.636315 2.006287 131 118 112
1.498958 1.454554 2.207304 154 102 82
1.363347 0.646693 2.001817 133 86 66
1.005768 1.174855 1.433285 162 127 111
1.559584 1.510525 2.213925 157 103 75
1.559584 1.510525 2.213925 155 100 72
1.048681 0.962965 1.485423 105 95 90
1.316797 0.619344 1.866622 99 66 41
1.230991 1.115854 1.741039 99 66 41
1.009331 1.189959 1.424500 143 92 68
1.062592 0.559169 1.497628 200 135 108
1.086814 0.470053 1.528241 125 78 45
1.067597 0.555326 1.499480 146 126 115
1.149072 0.929172 1.610115 150 73 36
0.668625 0.526185 0.926496 141 127 119
1.063187 0.573394 1.490697 127 118 114
1.070037 0.544147 1.499557 71 59 53
1.063705 0.581724 1.485250 162 101 80
1.140564 0.801692 1.586444 56 37 28
1.029287 0.713017 1.434274 159 82 49
1.095256 0.475130 1.523799 105 83 68
1.268419 0.774440 1.757289 168 88 48
1.268419 0.774440 1.757289 100 79 68
1.059934 0.619329 1.467807 115 97 90
1.095241 0.503416 1.514760 112 82 63
1.365540 1.384685 1.859716 120 62 39
1.106005 0.464732 1.525320 176 107 79
1.171361 0.959882 1.610791 167 154 149
1.113742 0.453037 1.527642 175 125 106
1.443039 0.598914 1.976848 160 112 88
1.089110 0.549951 1.489465 57 44 36
1.443025 0.625944 1.961624 116 84 64
1.435795 1.532571 1.948869 224 169 140
1.097568 0.547241 1.488107 163 103 74
1.096029 0.551106 1.485750 164 99 72
1.009315 1.145170 1.367936 109 96 89
1.004412 0.886383 1.355651 91 83 78
1.041357 0.758659 1.404199 47 36 31
1.041357 0.758659 1.404199 88 73 66
1.033259 0.792959 1.392862 190 141 120
1.103846 0.544151 1.487796 191 138 117
1.374109 0.905587 1.795001 131 88 71
1.177516 0.606931 1.579198 68 56 48
1.123442 0.493952 1.506772 96 57 34
1.107516 0.551739 1.481932 155 127 114
1.242801 1.117199 1.660287 148 130 117
1.242801 1.117199 1.660287 84 60 48
1.240917 1.126583 1.654163 162 86 55
1.220481 0.521844 1.625105 169 90 57
1.118302 0.544789 1.481469 199 143 113
1.168133 0.653596 1.540565 99 73 51
1.102319 0.615084 1.452627 191 120 83
1.145533 1.017620 1.506691 103 85 71
0.977726 1.034855 1.287584 194 103 63
1.122736 0.550878 1.477784 148 72 40
1.095122 0.645914 1.440562 160 105 79
1.095122 0.645914 1.440562 142 66 30
1.034666 0.866422 1.357025 148 99 80
1.094067 0.657005 1.434450 89 57 32
1.115567 0.589317 1.460694 160 127 92
1.115567 0.589317 1.460694 89 54 30
1.130725 0.540879 1.480130 156 118 95
1.067045 0.758858 1.394618 162 73 33
1.159588 0.442011 1.514917 141 81 56
1.156422 0.488445 1.502487 146 85 58
1.004504 0.977940 1.303843 174 112 85
1.004504 0.977940 1.303843 166 89 54
1.327032 1.070405 1.721548 157 88 62
1.057789 0.814764 1.367539 142 81 56
1.366852 1.144924 1.766218 192 158 140
1.105600 0.679537 1.427254 149 72 35
1.082597 0.738578 1.397467 155 86 59
1.082597 0.738578 1.397467 105 64 39
1.015706 0.965073 1.305443 152 80 48
1.532848 1.124172 1.964756 164 115 91
1.014088 0.970900 1.302565 184 137 116
1.171077 0.470216 1.504162 102 85 82
1.060141 0.832902 1.361420 71 58 54
1.189329 1.028589 1.525857 112 94 91
1.015037 0.973887 1.300840 70 57 54
1.176651 0.463464 1.507424 134 53 17
1.181275 0.448658 1.513190 193 140 120
1.042589 0.889702 1.334430 145 98 79
0.976441 1.104012 1.248897 154 80 50
1.153788 0.540654 1.474494 155 134 126
1.175749 0.477680 1.500519 126 114 112
1.211159 0.872486 1.544675 127 76 57
1.058693 0.857723 1.347418 151 90 67
1.148317 0.577794 1.459883 151 90 67
1.148317 0.577794 1.459883 216 187 170
1.302749 0.857004 1.634732 148 136 130
1.043242 0.897468 1.325683 159 108 86
1.036934 0.917729 1.317657 166 112 91
1.003735 1.032305 1.274013 153 102 79
1.155420 0.558998 1.466509 173 148 129
1.164214 0.533785 1.476891 43 31 26
1.024949 0.966874 1.300053 54 35 28
1.024949 0.966874 1.300053 188 132 111
0.981735 1.116754 1.239781 145 96 75
1.146033 0.604861 1.445777 95 83 73
0.989999 1.090546 1.248028 172 87 48
1.327808 0.878423 1.654532 158 110 87
1.007023 1.036606 1.268885 180 89 42
1.170698 0.538905 1.472923 165 102 57
1.153279 0.703858 1.422381 187 151 132
1.060483 0.885365 1.330665 137 96 80
1.198114 0.466719 1.502215 74 59 48
1.345303 0.899304 1.669428 106 93 86
1.017534 1.017437 1.275330 140 122 112
1.066631 0.872909 1.334796 180 107 75
0.995951 1.094974 1.245227 173 103 68
0.995951 1.094974 1.245227 163 99 70
1.211220 0.446992 1.510926 110 79 60
1.013634 1.044717 1.263097 146 72 40
1.186111 0.538379 1.472638 158 86 57
1.186111 0.538379 1.472638 170 85 48
1.188894 0.531102 1.475367 90 68 59
1.193723 0.517955 1.480903 186 130 105
1.084657 0.850775 1.343888 213 142 104
1.027749 1.021618 1.270709 135 81 61
1.027721 1.021540 1.270405 152 97 74
1.007061 1.082267 1.244761 174 117 94
1.221585 0.895158 1.498058 87 75 64
1.100945 0.813948 1.355830 169 135 120
1.150820 0.673127 1.417116 160 125 109
1.184735 0.575106 1.456249 158 94 63
1.184735 0.575106 1.456249 70 38 20
1.184735 0.575106 1.456249 163 131 112
1.007880 1.098640 1.238204 177 93 58
1.220824 0.472540 1.499329 184 113 83
1.013827 1.083330 1.243573 52 35 27
1.076346 0.897315 1.319575 46 30 22
1.129289 0.743146 1.384005 139 121 113
1.011819 1.089760 1.239812 165 140 125
1.100516 0.832318 1.347964 179 112 79
1.051943 0.971976 1.288153 185 96 56
1.179812 0.601285 1.444696 118 78 55
1.070941 0.916479 1.311137 103 83 69
1.070941 0.916479 1.311137 191 124 93
1.077010 0.900125 1.318120 147 135 129
1.057877 0.957268 1.293918 75 62 51
1.057877 0.957268 1.293918 160 102 76
1.055424 0.967036 1.289752 188 128 98
1.107574 0.812965 1.352928 160 106 81
1.055748 0.721726 1.260095 160 106 81
1.063807 0.946628 1.296694 182 141 122
1.231687 0.473738 1.500837 173 103 72
1.234516 0.461525 1.503847 185 115 87
1.013732 1.099784 1.233707 89 67 57
1.082306 0.906804 1.313912 121 85 65
1.111803 0.824527 1.349136 161 139 125
1.018147 1.094609 1.234636 88 58 43
1.196759 0.587241 1.449905 161 103 77
1.178081 0.934638 1.407517 138 96 74
1.242839 0.472710 1.499827 108 94 88
1.115326 0.830340 1.345711 108 94 88
1.121605 0.821151 1.352361 164 116 93
1.247777 0.464451 1.504090 195 134 103
1.030276 1.076759 1.239668 192 98 54
1.121560 0.820857 1.348968 120 77 46
1.174441 0.944199 1.412241 170 156 151
1.056670 1.003953 1.269565 196 129 97
1.226302 0.531940 1.473289 192 139 120
1.139419 0.788968 1.368047 210 141 110
1.255277 0.458940 1.506487 210 144 113
1.056888 1.006865 1.268333 213 156 126
1.254078 0.464630 1.503892 153 109 88
1.120246 0.832167 1.342679 189 127 98
1.252384 0.481234 1.499240 153 88 59
1.217693 0.574955 1.456154 192 112 78
1.135954 0.798988 1.357973 118 75 48
1.407575 0.841471 1.654630 156 93 61
1.235482 0.531954 1.475237 156 93 61
1.233161 0.539605 1.471281 93 63 47
1.233161 0.539605 1.471281 128 88 64
1.239045 0.529370 1.476009 213 136 95
1.088553 0.938221 1.296724 169 110 82
1.243164 0.523934 1.478471 151 79 46
1.218814 0.592439 1.449145 176 112 88
1.272729 0.434974 1.512643 173 106 75
1.086274 0.953121 1.289387 230 191 175
1.142078 0.804325 1.355249 230 191 175
1.203702 1.150157 1.425553 175 106 76
1.096741 0.933086 1.298318 146 117 97
1.097651 0.400787 1.299248 176 105 75
1.251725 0.522580 1.479903 173 126 106
1.047450 1.073542 1.236839 171 156 147
1.087632 0.853760 1.267980 162 109 85
1.144572 0.813527 1.350193 134 88 72
1.092316 0.955773 1.287617 148 65 31
1.036262 0.616436 1.174851 155 72 38
1.036262 0.616436 1.174851 229 145 93
1.177426 0.745814 1.380816 160 81 46
1.177426 0.745814 1.380816 148 135 126
1.175177 0.756083 1.375488 140 126 116
1.175177 0.756083 1.375488 140 126 116
1.294193 0.446424 1.514632 140 126 116
1.105893 0.939237 1.293896 69 50 36
1.058260 1.076856 1.232936 140 70 40
1.188741 0.738495 1.384134 211 154 133
1.300054 0.453744 1.513463 222 176 163
1.300054 0.453744 1.513463 148 92 70
1.245366 0.599825 1.448715 187 111 80
1.296609 0.467737 1.507725 155 91 62
1.296609 0.467737 1.507725 150 87 60
1.302205 0.461771 1.511063 173 128 112
1.183773 0.763003 1.373112 172 101 65
1.159334 0.825138 1.344537 154 94 65
1.316297 0.437376 1.521659 158 114 96
1.064955 1.082939 1.229074 158 114 96
1.311264 0.471644 1.508751 171 85 49
1.407076 0.859317 1.597462 189 130 101
1.159466 0.858317 1.329562 175 123 97
1.172548 0.825648 1.344306 165 156 155
1.146829 0.891335 1.314025 144 127 121
1.321120 0.462118 1.513009 177 128 110
1.182229 0.811481 1.350883 182 124 99
1.182229 0.811481 1.350883 67 53 45
1.328859 0.455719 1.518005 137 71 44
1.164411 0.860931 1.328693 155 80 45
1.164411 0.860931 1.328693 165 90 56
1.325877 0.469662 1.511488 113 93 87
1.190813 0.805457 1.354368 66 48 35
1.190813 0.805457 1.354368 138 83 64
1.329952 0.478210 1.511260 189 140 111
1.329952 0.478210 1.511260 164 124 103
1.183742 0.395708 1.344763 218 168 147
1.158062 0.890875 1.314512 218 168 147
1.186218 0.825357 1.345154 86 66 55
1.186218 0.825357 1.345154 152 81 49
1.183397 0.855002 1.331739 154 108 74
1.183397 0.855002 1.331739 165 114 92
1.180203 0.869117 1.325348 184 145 136
1.293255 0.627142 1.451359 147 113 92
1.293255 0.627142 1.451359 151 67 27
1.034853 0.746061 1.155403 154 95 67
1.151098 0.950054 1.287572 100 65 41
1.174658 0.893810 1.313075 176 128 103
1.154643 0.945353 1.289661 202 157 142
1.103700 0.722381 1.228303 111 76 55
1.155821 0.949745 1.286486 163 106 78
1.155821 0.949745 1.286486 82 65 56
1.260512 0.919247 1.402816 191 114 86
1.164058 0.937759 1.293433 77 63 54
1.166365 0.934099 1.295576 91 84 85
1.166365 0.934099 1.295576 81 56 45
1.693236 0.242768 1.877503 173 88 51
1.232559 0.847652 1.356318 220 179 163
1.418289 0.832849 1.545259 89 49 29
1.418289 0.832849 1.545259 144 128 118
1.212308 0.858553 1.332632 216 171 155
1.141109 1.020698 1.254314 157 107 86
1.277587 0.705728 1.403743 116 75 46
1.207918 0.875446 1.325523 167 105 77
1.155303 0.996862 1.266489 55 34 27
1.155319 0.996465 1.266396 148 111 84
1.237387 0.912170 1.356155 138 89 58
1.092917 0.605018 1.188797 163 101 72
1.209414 0.889969 1.319189 91 54 32
1.209414 0.889969 1.319189 129 116 107
1.163297 0.996350 1.267267 149 92 67
1.163297 0.996350 1.267267 119 70 34
1.273258 0.697645 1.385613 169 89 49
1.252868 0.804555 1.363306 228 182 166
1.216684 0.891219 1.320666 218 159 138
1.150212 1.041883 1.246059 151 81 48
1.221067 0.891846 1.320943 189 102 62
1.264953 0.803296 1.366536 167 90 57
1.147793 1.057127 1.238404 166 107 78
1.274362 0.804758 1.368429 186 120 94
1.105972 0.959017 1.179126 189 124 98
1.277709 0.831219 1.358499 166 103 70
1.257071 0.873706 1.335777 105 58 38
1.328895 0.720936 1.406284 170 104 72
1.328895 0.720936 1.406284 121 77 42
1.270458 0.875106 1.338261 158 81 46
1.277863 0.865280 1.345376 196 128 109
1.281565 0.861100 1.348363 212 172 159
1.287508 0.854837 1.352300 175 124 101
1.285843 0.862119 1.349064 162 144 134
1.619380 1.149957 1.686888 150 138 131
1.305028 0.873285 1.352018 163 144 131
1.316739 0.868057 1.356338 145 106 75
1.326591 0.870708 1.361020 134 92 63
1.620699 0.650599 1.661753 134 93 63
1.264634 0.985943 1.293001 114 84 71
1.324774 0.886344 1.353960 143 108 84
1.099285 0.909778 1.122174 178 111 76
1.216706 1.083354 1.240931 193 127 97
1.262769 1.032753 1.274954 175 122 96
1.262769 1.032753 1.274954 177 123 96
1.269958 1.094830 1.255482 170 112 61
1.353499 0.990500 1.334131 180 93 46
2.050284 1.161247 1.970182 194 143 115
0.764360 0.394503 0.708950 190 183 184
1.607590 1.109444 1.423782 177 157 142
1.716123 0.965165 1.459745 172 122 84
1.724248 0.700243 1.453900 172 105 76
1.756930 0.642894 1.475786 103 65 38
1.750496 0.663880 1.464832 161 83 41
1.716283 0.741972 1.430783 200 114 78
1.774310 0.732790 1.477192 119 69 33
1.729632 0.717509 1.439063 172 127 101
1.763568 0.649722 1.467038 175 102 66
1.763568 0.649722 1.467038 163 97 66
1.711237 0.762220 1.422242 174 120 95
1.144080 0.354482 0.943640 171 122 98
1.777751 0.635574 1.469034 182 124 94
1.777751 0.635574 1.469034 164 94 61
1.768013 0.656919 1.459181 159 95 74
1.768013 0.656919 1.459181 98 62 41
1.904526 0.765692 1.567673 141 121 108
1.724873 0.751247 1.418733 132 119 109
1.724873 0.751247 1.418733 159 91 65
1.762653 0.676001 1.448922 159 78 40
1.735189 0.702971 1.426337 174 88 54
1.686417 0.833483 1.385238 133 97 68
1.707869 0.694095 1.400778 190 135 108
1.745138 0.717637 1.430306 179 137 128
1.684886 0.841027 1.380369 203 133 112
1.698588 0.688261 1.390675 153 86 54
1.688682 0.835399 1.381367 180 130 117
1.688682 0.835399 1.381367 211 131 105
1.688682 0.835399 1.381367 159 81 43
1.695719 0.823260 1.386255 180 81 43
1.760231 0.691072 1.438770 98 66 49
1.676812 0.863153 1.369806 92 55 33
1.674685 0.869810 1.366775 130 92 69
1.743168 0.734429 1.421587 171 116 99
1.677071 0.865821 1.366335 193 144 132
1.752545 0.716872 1.427071 152 132 120
1.665983 0.892911 1.356274 121 115 115
2.115495 1.038489 1.720295 90 63 44
1.670367 0.886715 1.358018 143 100 77
1.666143 0.894015 1.354515 105 62 30
1.766680 0.683938 1.436047 139 98 77
1.698986 0.826018 1.380842 181 136 111
1.779968 0.667909 1.446557 181 136 111
1.673900 0.876736 1.360238 109 96 93
0.768978 0.401239 0.624773 97 79 72
1.658143 0.914753 1.346607 125 90 62
2.039702 0.795625 1.655487 105 66 37
1.661441 0.907559 1.348285 157 104 83
1.674839 0.881569 1.358020 171 117 93
1.673632 0.885565 1.356620 131 88 55
1.685360 0.859041 1.365710 167 98 64
1.760210 0.715481 1.424607 116 75 46
1.760210 0.715481 1.424607 62 43 30
1.697205 0.845316 1.372991 72 48 42
1.797874 0.647963 1.454371 124 111 108
1.797874 0.647963 1.454371 163 93 58
1.676109 0.883979 1.355812 174 117 84
1.673881 0.888207 1.353940 187 129 104
1.673881 0.888207 1.353940 168 111 79
1.670862 0.897118 1.351294 163 76 36
1.936599 0.933123 1.566111 178 133 110
1.756882 0.723800 1.420538 162 122 103
1.666663 0.907125 1.345275 109 64 30
1.683291 0.873408 1.358575 124 111 103
1.693150 0.855082 1.366114 106 64 36
2.027609 0.747031 1.635713 163 112 89
2.027609 0.747031 1.635713 165 100 70
1.674964 0.891888 1.351152 171 110 78
1.681284 0.877771 1.355856 172 118 99
1.692733 0.857479 1.365052 169 107 79
1.692733 0.857479 1.365052 168 88 49
1.690108 0.863214 1.362612 76 50 31
1.690108 0.863214 1.362612 127 88 54
1.751500 0.743159 1.411265 71 54 46
1.681341 0.880332 1.354694 181 128 101
1.715282 0.814479 1.381004 178 97 53
1.803312 0.643822 1.451518 55 39 26
1.638365 0.974936 1.317056 78 61 54
1.761597 0.727400 1.415598 159 110 89
1.713514 0.822112 1.376824 83 63 52
1.673202 0.902729 1.344114 168 77 37
1.634897 0.984128 1.312956 159 107 84
1.692619 0.864404 1.359222 155 107 88
1.707946 0.834474 1.371059 175 119 92
1.707946 0.834474 1.371059 131 82 43
1.678447 0.893235 1.346556 237 194 181
1.678447 0.893235 1.346556 121 114 115
1.768495 0.721345 1.418238 62 42 28
1.695948 0.861290 1.359549 158 71 30
1.816528 0.636582 1.455895 80 49 37
1.714650 0.825223 1.374214 129 77 38
2.033964 0.747769 1.629861 167 120 105
1.699713 0.856809 1.361413 169 118 93
1.721751 0.813651 1.378833 121 83 53
1.721751 0.813651 1.378833 159 115 94
1.627904 1.003314 1.303653 159 115 94
1.627904 1.003314 1.303653 172 122 98
1.808667 0.653940 1.448232 109 61 29
1.808667 0.653940 1.448232 164 83 48
1.640277 0.980120 1.312917 163 105 77
1.642976 0.972769 1.314851 159 101 73
1.703062 0.852361 1.362599 87 53 28
1.720051 0.818087 1.375855 142 102 73
1.676910 0.905081 1.341173 161 108 84
1.635929 0.990153 1.308151 165 104 75
1.717071 0.826477 1.372638 111 66 30
1.700221 0.859370 1.359170 132 90 52
1.705036 0.851032 1.362254 169 122 100
1.699239 0.867038 1.356430 182 105 59
1.678236 0.905565 1.339584 195 145 116
1.675855 0.910479 1.337543 156 99 51
1.637996 0.986623 1.307156 197 156 118
1.637996 0.986623 1.307156 137 87 43
1.803554 0.669965 1.438932 157 139 129
1.694012 0.875633 1.351514 162 111 88
1.725600 0.812615 1.376295 228 222 222
1.681256 0.901212 1.340121 219 160 143
1.626351 1.015039 1.296274 173 131 116
0.847743 0.413740 0.675002 188 133 67
1.724068 0.820201 1.373738 118 71 37
1.643959 0.978774 1.309904 100 61 35
1.722713 0.824228 1.371872 145 109 30
1.722713 0.824228 1.371872 158 74 40
1.722578 0.824440 1.371701 155 77 40
1.722578 0.824440 1.371701 155 77 40
1.635043 1.001030 1.301011 155 81 48
1.650580 0.968487 1.312844 124 76 38
1.650580 0.968487 1.312844 147 117 34
0.850871 0.409884 0.676114 141 85 58
1.707042 0.856750 1.357367 150 92 65
1.682815 0.905765 1.337160 150 135 129
1.698144 0.873413 1.349085 187 171 167
1.639970 0.994625 1.302329 160 93 63
1.646948 0.980330 1.307769 160 93 63
1.727091 0.823427 1.371035 167 120 96
1.643005 0.986927 1.304261 167 118 100
1.813431 0.664776 1.439473 126 95 25
1.708769 0.857360 1.355854 170 104 74
1.707350 0.860515 1.354595 175 119 60
1.707350 0.860515 1.354595 201 163 131
1.706589 0.865948 1.353613 171 100 67
1.704953 0.870396 1.350522 155 131 117
1.704953 0.870396 1.350522 172 112 85
1.737841 0.807713 1.376084 162 97 69
1.737841 0.807713 1.376084 126 72 31
1.650740 0.981150 1.305562 162 117 85
1.701866 0.877828 1.345754 149 69 28
1.653012 0.975732 1.306756 117 71 35
1.818825 0.668471 1.436900 111 71 42
1.647869 0.989375 1.301266 111 71 42
1.647869 0.989375 1.301266 128 98 79
1.708991 0.865822 1.349166 166 108 79
1.707446 0.871163 1.347072 164 104 78
1.693673 0.901083 1.335562 165 124 102
1.640849 1.006379 1.293597 212 175 160
1.808154 0.697919 1.424798 109 88 52
1.707475 0.878116 1.345169 165 85 50
1.657618 0.975579 1.305893 125 91 17
1.657411 0.975237 1.305529 134 100 23
1.661922 0.965879 1.309066 167 113 87
1.695626 0.902391 1.334482 151 134 121
1.816172 0.685038 1.428415 79 65 55
1.830782 0.659897 1.439484 124 90 29
1.823571 0.672775 1.433598 169 136 121
1.809770 0.700573 1.422599 127 92 65
1.701184 0.895268 1.336250 147 74 46
1.659523 0.975566 1.303124 195 151 133
1.711980 0.875334 1.344211 150 114 101
1.662072 0.971372 1.304555 172 107 80
1.662072 0.971372 1.304555 154 110 44
1.716291 0.869084 1.345554 84 69 61
1.703224 0.894409 1.335298 178 108 76
1.814798 0.695984 1.422673 159 99 75
1.810796 0.704444 1.419215 125 77 39
1.669160 0.961704 1.307900 132 78 38
1.669160 0.961704 1.307900 169 121 77
1.706141 0.891945 1.336364 150 139 141
1.716784 0.873517 1.344518 137 122 113
1.831563 0.667574 1.434294 165 121 98
1.703133 0.901375 1.333606 157 81 44
1.805353 0.716535 1.412763 157 81 44
1.668640 0.966106 1.305775 174 112 81
1.668640 0.966106 1.305775 174 112 81
1.666032 0.970586 1.303512 221 109 68
1.651636 1.001338 1.291342 84 68 57
1.651636 1.001338 1.291342 155 87 55
1.670721 0.965605 1.305504 191 129 109
1.672206 0.962501 1.306489 194 148 128
1.733840 0.848706 1.354326 160 72 30
1.669629 0.967827 1.304155 168 111 82
1.732692 0.850977 1.352792 149 100 56
1.720423 0.873998 1.343179 182 100 56
1.707211 0.897578 1.332676 189 126 93
1.709986 0.895913 1.333736 148 79 47
1.660631 0.991325 1.293857 154 139 102
1.712963 0.893064 1.334449 163 112 87
1.676439 0.961261 1.305809 151 86 57
1.658583 0.997106 1.291641 180 116 94
1.723663 0.873355 1.342170 161 93 60
1.758975 0.812337 1.368268 138 103 73
1.822359 0.704955 1.417509 128 82 44
1.822359 0.704955 1.417509 212 154 104
1.811575 0.725933 1.408771 202 120 58
1.672897 0.972894 1.300510 141 87 66
1.677640 0.965433 1.303854 155 119 39
1.660054 0.999767 1.288632 155 119 39
1.763242 0.812078 1.368679 221 163 117
1.816933 0.722174 1.409505 208 148 102
1.821186 0.717709 1.410806 166 103 74
1.871556 0.642607 1.446997 179 122 96
1.834624 0.705860 1.416390 173 123 109
1.865113 0.662940 1.438236 189 121 98
1.854484 0.676742 1.429283 166 121 51
1.776141 0.808950 1.368352 155 98 72
1.669790 1.000558 1.285543 210 159 142
1.667741 1.005740 1.282967 203 157 139
1.784200 0.802430 1.371125 166 137 127
1.843727 0.703778 1.416824 150 124 114
1.843185 0.704076 1.416116 177 125 67
1.843185 0.704076 1.416116 209 188 153
1.840410 0.714220 1.412613 203 126 75
1.840410 0.714220 1.412613 223 172 124
1.784917 0.805412 1.369668 186 147 130
1.878473 0.656466 1.441258 158 96 70
2.278729 0.517712 1.748252 193 121 50
1.786702 0.809880 1.367044 159 81 45
1.786702 0.809880 1.367044 159 81 45
1.893142 0.649159 1.447892 167 108 81
1.784314 0.816085 1.364413 106 65 39
1.849483 0.711259 1.413835 128 98 31
1.641227 0.823771 1.243588 170 112 84
1.768465 0.842921 1.351293 168 114 88
1.782517 0.820478 1.361845 110 80 32
1.892708 0.655321 1.443212 197 147 79
1.762549 0.861823 1.342047 115 92 31
1.893966 0.676086 1.437386 89 68 61
1.862860 0.712820 1.413351 169 118 94
1.754795 0.885215 1.331325 195 137 110
1.803455 0.807789 1.367639 174 120 98
1.803455 0.807789 1.367639 165 106 75
1.771640 0.859402 1.343060 165 97 64
1.861810 0.719727 1.411277 237 204 145
1.756997 0.886648 1.330140 153 79 45
1.888409 0.673023 1.429609 156 82 46
1.755080 0.891848 1.327942 207 156 123
1.755080 0.891848 1.327942 181 168 168
1.906427 0.666016 1.441916 181 168 168
1.761222 0.883964 1.331644 151 80 44
1.761222 0.883964 1.331644 157 80 43
1.908912 0.661150 1.442559 217 173 104
1.759722 0.889299 1.329128 97 70 24
1.882152 0.699249 1.421498 155 85 57
1.927562 0.640192 1.453017 161 84 55
1.762180 0.889628 1.328200 161 90 62
1.817773 0.805255 1.368563 171 126 104
1.817773 0.805255 1.368563 171 122 99
1.913185 0.668326 1.440184 223 177 129
1.767267 0.886879 1.329872 228 212 157
1.892250 0.696551 1.423627 170 154 125
1.724605 0.957102 1.296467 154 91 63
1.724605 0.957102 1.296467 207 155 85
1.822961 0.803574 1.369631 213 133 68
1.731055 0.951381 1.300410 108 58 31
1.727376 0.959808 1.296124 154 111 71
1.734406 0.949516 1.300649 121 91 28
1.913430 0.689372 1.433640 178 152 87
1.300791 0.633082 0.948565 124 112 111
1.778023 0.887580 1.329472 156 106 62
1.718001 0.984699 1.284371 136 99 28
1.736483 0.955067 1.297688 127 80 51
1.738538 0.951990 1.298955 165 97 65
1.917002 0.690670 1.431816 151 79 44
1.734402 0.962290 1.294582 99 66 45
1.736675 0.957879 1.295933 160 141 131
1.721144 0.888377 1.278930 172 135 120
1.739138 0.956326 1.297266 164 114 64
1.740131 0.954308 1.298001 151 97 53
1.737791 0.963003 1.293597 127 97 85
1.844342 0.805356 1.372344 212 127 94
1.929194 0.705137 1.431712 176 81 46
1.851408 0.805414 1.373143 121 87 32
1.935802 0.701923 1.432916 150 100 55
1.859313 0.800778 1.375522 186 114 77
1.941016 0.967971 1.416566 162 100 71
1.866936 0.800500 1.377590 134 89 53
1.866936 0.800500 1.377590 170 102 66
1.919838 0.737035 1.415842 166 112 90
1.562662 0.687922 1.150531 161 94 66
1.810828 0.889342 1.332088 161 94 66
1.864127 0.813816 1.370401 223 152 95
1.116100 0.341612 0.813381 165 109 86
1.594830 0.903812 1.161891 142 90 70
2.251148 0.660334 1.630577 160 112 93
1.810597 0.992094 1.290025 155 122 35
1.820142 0.990659 1.293205 162 98 65
1.832397 0.989403 1.297042 49 34 21
1.848387 0.992592 1.300829 57 36 23
1.272223 0.770113 0.827574 151 98 74
