ply
format ascii 1.0
element vertex 123
property float x
property float y
property float z
property uchar red
property uchar green
property uchar blue
end_header
-0.243337 -0.176002 1.570471 187 176 166
-0.243337 -0.176002 1.570471 173 175 166
-0.214786 -0.153134 1.563781 196 188 182
-0.203784 0.088060 1.585089 168 180 171
-0.203344 0.106282 1.586527 160 190 181
-0.198666 -0.077721 1.575503 174 203 194
-0.186589 -0.012869 1.586156 148 171 165
-0.186893 0.123169 1.595037 118 149 146
-0.176417 -0.079085 1.587186 146 160 150
-0.172974 -0.155814 1.582629 196 196 187
-0.147009 -0.146608 1.594961 92 99 94
-0.144606 -0.142812 1.596188 161 170 164
-0.136705 -0.148454 1.600389 152 169 163
-0.136515 -0.152644 1.601609 117 145 149
-0.100964 -0.156822 1.616082 138 154 153
-0.093199 -0.157420 1.618824 131 181 198
-0.070954 -0.189613 1.627419 167 169 163
-0.039785 0.194725 1.499354 119 131 127
-0.019268 0.372615 1.245581 129 128 122
-0.009415 -0.178677 1.603729 109 111 107
-0.005551 0.371781 1.252175 147 148 143
0.001445 0.164408 1.640623 108 124 125
0.001966 0.365415 1.261680 176 180 172
0.002581 -0.019367 1.499521 108 124 124
0.002694 -0.046265 1.503713 110 123 133
0.003875 -0.027876 1.500394 102 118 123
0.003875 -0.027876 1.500394 105 117 119
0.007476 0.173474 1.642274 105 113 106
0.007690 -0.021955 1.500359 132 141 134
0.009311 0.322426 1.253600 137 160 161
0.018482 -0.038454 1.502436 127 130 133
0.019233 -0.024778 1.500499 131 130 129
0.019644 -0.004748 1.500825 109 114 114
0.021863 -0.067131 1.510608 151 192 206
0.021895 0.013767 1.503712 102 104 106
0.022833 -0.034671 1.503140 147 150 152
0.026200 0.000257 1.501508 108 107 107
0.027563 -0.034420 1.502886 90 97 101
0.027651 -0.041312 1.504295 91 98 103
0.029177 0.013760 1.503815 110 110 111
0.030035 -0.039763 1.503499 114 127 130
0.030271 -0.052067 1.506493 122 162 179
0.031590 -0.024210 1.502740 112 115 117
0.032613 -0.004990 1.502145 84 92 100
0.032930 -0.045645 1.505523 102 102 105
0.033810 -0.048813 1.506833 142 167 163
0.034765 -0.042301 1.505300 142 166 164
0.037052 -0.036544 1.505034 121 156 162
0.037052 -0.036544 1.505034 117 158 176
0.037229 -0.045542 1.506342 95 108 115
0.041685 -0.022591 1.504318 106 112 114
0.043229 -0.038387 1.506282 124 123 122
0.045031 -0.041076 1.508115 88 88 100
0.046196 -0.010654 1.505825 134 126 119
0.046718 0.003193 1.507403 117 156 176
0.047851 -0.000283 1.506785 100 106 111
0.049779 -0.040699 1.508210 148 141 139
0.050372 -0.060067 1.513439 129 134 141
0.050232 -0.004720 1.507186 115 107 108
0.050955 0.044864 1.519924 88 93 93
0.058178 -0.196214 1.686711 99 98 98
0.052141 -0.012281 1.507109 98 103 104
0.052992 -0.046624 1.510451 131 142 137
0.053394 0.015798 1.511654 105 112 118
0.053831 0.041116 1.519686 127 122 117
0.054765 -0.001875 1.508644 115 130 149
0.055706 0.004939 1.509728 73 83 83
0.055841 -0.038914 1.510511 107 110 111
0.055791 -0.009622 1.508599 119 123 127
0.058457 0.040875 1.521769 92 109 122
0.058353 -0.013132 1.509770 121 152 151
0.059148 0.011551 1.512448 115 117 117
0.059535 0.004500 1.511381 89 94 93
0.059497 -0.017087 1.509213 128 117 116
0.060062 0.024684 1.516053 89 101 106
0.060221 -0.037680 1.511612 100 116 128
0.061513 0.022320 1.516412 125 131 135
0.061402 -0.010928 1.510982 129 127 129
0.061740 -0.005216 1.510661 109 113 115
0.063495 -0.008442 1.512634 117 120 126
0.067352 0.028285 1.519567 108 111 117
0.067333 -0.014201 1.512982 152 150 155
0.067989 0.041883 1.525694 149 145 144
0.068155 -0.009939 1.514074 120 114 114
0.072318 0.026596 1.521266 99 110 117
0.075708 -0.053811 1.520199 144 143 144
0.075632 -0.036731 1.518378 118 124 124
0.075880 -0.030118 1.517176 115 121 123
0.077324 -0.056316 1.521603 108 134 161
0.078354 -0.033974 1.518918 126 143 167
0.066887 0.335762 1.285548 87 86 89
0.080866 -0.027908 1.519162 92 93 96
0.082096 -0.050718 1.522358 109 119 125
0.095396 -0.203448 1.701263 70 69 74
0.087220 -0.047960 1.524822 108 110 114
0.099969 -0.209536 1.703354 102 109 114
0.091425 -0.048141 1.528383 123 148 153
0.091855 -0.040701 1.525864 135 158 162
0.092964 0.032326 1.535599 118 113 114
0.092964 0.032326 1.535599 80 78 79
0.093351 -0.021996 1.527562 100 123 149
0.094047 -0.037782 1.527347 130 138 142
0.101800 -0.039796 1.534370 80 74 72
0.116652 -0.197053 1.707815 103 102 117
0.105284 -0.054407 1.538302 116 112 118
0.094328 0.344865 1.301704 124 126 126
0.094328 0.344865 1.301704 130 155 158
0.125468 -0.207991 1.712300 136 130 127
0.122118 -0.031913 1.547359 118 120 117
0.107483 0.334892 1.304628 111 126 130
0.109447 0.347156 1.307362 126 160 180
0.149604 0.208556 1.757739 105 142 161
0.111645 0.317484 1.299801 122 114 114
0.113537 0.335677 1.308923 122 114 116
0.120017 0.369591 1.310050 83 80 87
0.124315 0.313454 1.307233 92 101 104
0.126895 0.317368 1.306983 88 86 87
0.165960 0.347969 1.330033 85 84 85
0.192629 0.218244 1.413042 100 101 100
0.194783 0.215834 1.413909 79 89 90
0.188626 0.350523 1.344173 130 136 134
0.198680 0.350386 1.348682 88 84 87
0.208994 0.340245 1.353366 125 129 130
