ply
format ascii 1.0
element vertex 332
property float x
property float y
property float z
property uchar red
property uchar green
property uchar blue
end_header
-0.245867 -0.041626 1.521220 187 176 166
-0.279057 -0.110680 1.790213 173 175 166
-0.275344 -0.112982 1.785927 196 188 182
-0.233599 -0.168707 1.507692 168 180 171
-0.233599 -0.168707 1.507692 160 190 181
-0.206380 -0.146854 1.502575 174 203 194
-0.206013 -0.063787 1.510009 148 171 165
-0.205882 -0.056367 1.510447 118 149 146
-0.205882 -0.056367 1.510447 146 160 150
-0.196064 0.084922 1.525134 196 196 187
-0.195661 0.102450 1.526668 92 99 94
-0.191239 0.396760 1.559740 161 170 164
-0.190991 -0.074466 1.514692 152 169 163
-0.169817 0.350192 1.434512 117 145 149
-0.236749 0.349887 2.097194 138 154 153
-0.179456 -0.012179 1.525591 131 181 198
-0.179876 0.118648 1.535212 167 169 163
-0.177373 -0.125621 1.518370 119 131 127
-0.178650 0.136353 1.535997 129 128 122
-0.193398 0.253203 1.694128 109 111 107
-0.175172 -0.104415 1.522344 147 148 143
-0.169629 -0.075844 1.526168 108 124 125
-0.166263 -0.149551 1.521260 176 180 172
-0.166263 -0.149551 1.521260 108 124 124
-0.160269 -0.125557 1.526417 110 123 133
-0.107214 0.074309 1.569829 102 118 123
-0.151772 -0.085090 1.533749 105 117 119
-0.145920 -0.118070 1.533305 105 113 106
-0.142677 -0.172915 1.531102 132 141 134
-0.141343 -0.140784 1.533519 137 160 161
-0.139039 -0.137145 1.534762 127 130 133
-0.153167 0.395903 1.785787 131 130 129
-0.148060 0.460470 1.784135 109 114 114
-0.131443 -0.142585 1.538819 151 192 206
-0.131253 -0.146608 1.539912 102 104 106
-0.162017 0.405076 1.896436 147 150 152
-0.122209 -0.132983 1.543350 108 107 107
-0.056736 0.160704 1.290437 90 97 101
-0.133879 0.226864 1.714355 91 98 103
-0.156486 0.153076 2.119118 110 110 111
-0.067936 -0.011259 1.342333 114 127 130
-0.121477 -0.050955 1.951701 122 162 179
-0.097096 -0.150713 1.554208 112 115 117
-0.061499 0.250118 1.277525 84 92 100
-0.085437 0.170525 1.441060 102 102 105
-0.085222 0.167600 1.442693 142 167 163
-0.084435 0.175271 1.442730 142 166 164
-0.089633 -0.151306 1.556933 121 156 162
-0.093119 -0.061742 1.615800 117 158 176
-0.087989 0.272237 1.587678 95 108 115
-0.085672 -0.064720 1.606523 106 112 114
-0.079125 -0.083327 1.516936 124 123 122
-0.074302 0.204005 1.425476 88 88 100
-0.087519 -0.028642 1.885847 134 126 119
-0.080230 -0.018831 1.831260 117 156 176
-0.068238 -0.182264 1.565124 100 106 111
-0.047248 0.350599 1.203928 148 141 139
-0.054171 0.179259 1.445826 129 134 141
0.002813 0.128940 1.461900 115 107 108
-0.051536 -0.077983 1.577781 88 93 93
-0.054473 0.053035 1.813948 99 98 98
-0.042619 0.204512 1.449282 98 103 104
-0.042619 0.204512 1.449282 131 142 137
-0.009567 0.055009 1.269971 105 112 118
-0.038487 0.188298 1.450271 127 122 117
-0.037319 0.205990 1.386004 115 130 149
-0.029327 -0.081772 1.484943 73 83 83
-0.027315 -0.019100 1.613540 107 110 111
-0.027152 -0.058433 1.637584 119 123 127
-0.018697 0.363511 1.213520 92 109 122
-0.019900 -0.021334 1.451266 121 152 151
-0.016901 -0.150245 1.550139 115 117 117
-0.019301 -0.013158 1.735010 89 94 93
-0.010260 0.275297 1.289677 128 117 116
-0.007992 0.311662 1.216248 89 101 106
-0.009067 -0.171941 1.544604 100 116 128
-0.009170 -0.160663 1.563292 125 131 135
-0.005349 0.362635 1.220069 129 127 129
-0.005209 0.357467 1.201434 109 113 115
0.001256 0.001390 1.510721 117 120 126
-0.002167 0.012151 1.451537 108 111 117
-0.000778 -0.046596 1.453161 152 150 155
0.001342 0.157941 1.582342 149 145 144
0.001965 0.356324 1.229175 120 114 114
0.002305 -0.024896 1.450538 99 110 117
0.002504 -0.018483 1.449343 144 143 144
0.002610 -0.044440 1.453019 118 124 124
0.002610 -0.044440 1.453019 115 121 123
0.003753 -0.026697 1.450110 108 134 161
0.003753 -0.026697 1.450110 126 143 167
0.005367 0.004219 1.495901 87 86 89
0.048003 0.161548 1.580227 92 93 96
0.007159 0.166653 1.584051 109 119 125
0.007177 -0.054728 1.456006 70 69 74
0.007442 -0.020990 1.450206 108 110 114
0.007917 -0.040913 1.452220 102 109 114
0.007600 0.274112 1.301188 123 148 153
0.016358 0.270915 1.246372 135 158 162
0.009131 0.314547 1.221316 118 113 114
0.018874 0.186581 1.816547 80 78 79
0.009436 0.311875 1.221686 100 123 149
0.009835 0.294861 1.272027 130 138 142
0.012877 -0.141352 1.565732 80 74 72
0.011319 0.278044 1.302158 103 102 117
0.015748 -0.084213 1.646560 116 112 118
0.014332 -0.068185 1.461064 124 126 126
0.014248 0.277928 1.303575 130 155 158
0.017870 -0.036931 1.452223 136 130 127
0.018600 -0.023734 1.450552 118 120 117
0.018998 -0.004410 1.451050 111 126 130
0.021131 -0.064609 1.459650 126 160 180
0.021176 0.013444 1.453958 105 142 161
0.021759 -0.003773 1.451597 122 114 114
0.022079 -0.033291 1.452997 122 114 116
0.024094 -0.042058 1.453699 83 80 87
0.024801 -0.028821 1.451525 92 101 104
0.025340 0.000407 1.451865 88 86 87
0.026652 -0.033056 1.452858 85 84 85
0.026736 -0.039707 1.454107 100 101 100
0.030250 -0.128715 1.639187 79 89 90
0.026888 -0.012577 1.451900 130 136 134
0.028219 0.013425 1.454196 88 84 87
0.029040 -0.038217 1.453434 125 129 130
0.029265 -0.050090 1.456111 102 100 99
0.032058 -0.083651 1.562648 102 100 99
0.030548 -0.023213 1.452895 84 77 80
0.032256 0.046000 1.554799 110 107 109
0.031542 -0.004668 1.452530 108 105 109
0.031992 -0.084267 1.470228 134 125 123
0.031838 -0.043900 1.455321 135 136 137
0.032146 0.051667 1.469231 131 125 127
0.032687 -0.046960 1.456533 129 123 124
0.033613 -0.040677 1.455177 130 126 133
0.035828 -0.035126 1.455024 155 158 161
0.035828 -0.035126 1.455024 108 114 128
0.035996 -0.043809 1.456166 151 156 163
0.037038 -0.028396 1.453894 79 79 76
0.045933 0.028570 1.750460 112 110 114
0.045933 0.028570 1.750460 92 99 99
0.036508 -0.054150 1.405954 141 153 154
0.039413 -0.008418 1.452835 120 124 146
0.054592 -0.026790 1.677067 101 106 102
0.040337 0.043870 1.467682 126 120 122
0.040313 -0.021672 1.454573 139 134 136
0.046189 -0.132373 1.629570 126 110 110
0.041801 -0.036918 1.456292 103 104 107
0.043540 -0.039519 1.458013 125 124 123
0.043594 -0.030981 1.455488 86 90 91
0.044677 -0.010167 1.456176 93 101 103
0.045184 0.003188 1.457786 128 124 127
0.051298 0.355041 1.811575 83 84 101
0.046280 -0.000165 1.457195 161 162 163
0.041086 0.299002 1.276936 143 141 141
0.054378 -0.124342 1.670798 94 97 113
0.040173 0.310049 1.235551 83 87 95
0.048133 -0.039164 1.458194 117 119 119
0.048696 -0.057855 1.462902 114 115 109
0.048583 -0.004452 1.457574 134 131 133
0.049277 0.043345 1.469917 132 135 145
0.049810 -0.098450 1.483019 112 144 160
0.055965 -0.188826 1.622541 150 148 148
0.050428 -0.011750 1.457468 150 148 148
0.051238 -0.044889 1.460288 138 143 143
0.051301 -0.008548 1.462308 164 162 166
0.051642 0.015326 1.461985 158 155 160
0.052058 0.039724 1.469721 167 163 164
0.053740 0.202087 1.518251 112 129 142
0.044020 0.309576 1.237931 141 168 168
0.051913 -0.008746 1.461532 130 134 134
0.051994 -0.032322 1.458794 101 94 95
0.050848 0.227250 1.439928 124 118 119
0.052968 -0.001719 1.459042 140 143 146
0.072207 0.039258 1.476097 78 74 75
0.053881 0.004852 1.460127 78 74 75
0.053996 -0.037458 1.460469 100 105 111
0.053959 -0.009195 1.458951 119 109 110
0.054830 0.001557 1.459996 118 119 124
0.056532 0.039476 1.471735 150 146 146
0.056435 -0.012589 1.460059 93 86 87
0.057207 0.011216 1.462795 118 115 116
0.057582 0.004416 1.461740 101 101 102
0.057543 -0.016405 1.459521 127 155 157
0.058090 0.023874 1.466291 126 125 127
0.058233 -0.036278 1.461587 105 104 108
0.059492 0.021588 1.466636 84 80 82
0.059385 -0.010471 1.461262 123 120 122
0.059714 -0.004960 1.461021 129 130 130
0.060641 -0.039452 1.462614 109 111 112
0.061409 -0.008082 1.462862 121 120 120
0.062390 0.042665 1.475035 132 135 134
0.065141 0.027323 1.469730 118 128 130
0.065274 -0.055177 1.468800 124 139 139
0.065121 -0.013646 1.463205 110 126 126
0.065750 0.040418 1.475580 90 79 79
0.065917 -0.009538 1.464275 113 108 101
0.066523 -0.063949 1.469971 94 87 88
0.059655 0.296856 1.280897 100 100 103
0.060122 0.299689 1.279199 122 120 124
0.059037 0.295784 1.256808 125 129 148
0.069945 0.025680 1.471385 147 143 156
0.069954 -0.045610 1.467172 158 151 152
0.071826 -0.070929 1.476074 101 90 94
0.071505 -0.048694 1.467768 115 104 105
0.072720 -0.045422 1.468343 118 111 117
0.072720 -0.045422 1.468343 127 122 123
0.073199 -0.051881 1.469721 131 125 126
0.073134 -0.035406 1.468184 125 121 122
0.073380 -0.029026 1.467123 103 99 100
0.075134 0.053509 1.486366 99 96 97
0.065051 0.296517 1.281518 104 88 87
0.074759 -0.054301 1.471035 125 124 128
0.074759 -0.054301 1.471035 105 117 116
0.075769 -0.032753 1.468755 119 128 139
0.075769 -0.032753 1.468755 116 100 101
0.065180 0.327181 1.252815 128 107 106
0.077977 0.056351 1.491293 103 98 102
0.077977 0.056351 1.491293 104 95 95
0.130073 0.068173 1.589290 102 144 171
0.130194 0.068290 1.589158 120 114 116
0.078203 -0.026907 1.469078 105 103 103
0.078763 -0.034086 1.469763 66 55 54
0.118362 0.018201 1.396158 155 154 162
0.079376 -0.048914 1.471874 92 92 99
0.080177 0.026259 1.476208 113 107 107
0.080421 0.022781 1.476793 105 97 96
0.080421 0.022781 1.476793 119 115 118
0.080142 -0.036751 1.470602 139 138 138
0.068438 0.323813 1.254367 127 127 126
0.080367 -0.020648 1.469705 157 147 145
0.082179 -0.014971 1.470839 91 84 84
0.091767 -0.195809 1.636500 133 130 133
0.083179 -0.029454 1.471560 114 95 97
0.084609 0.041621 1.487977 106 102 102
0.091875 -0.088010 1.605163 117 111 113
0.084331 -0.046269 1.474281 89 99 98
0.087250 -0.021034 1.362413 122 109 109
0.092553 -0.027792 1.601178 113 140 140
0.096157 -0.201653 1.638462 103 103 103
0.088099 -0.014365 1.474506 129 123 125
0.088394 -0.046458 1.477664 129 124 126
0.088819 -0.039280 1.475394 139 147 150
0.089901 0.031117 1.485139 120 128 128
0.089901 0.031117 1.485139 116 108 113
0.090272 -0.021249 1.477167 90 86 85
0.090938 -0.036472 1.476842 168 162 167
0.098756 -0.025607 1.591970 123 113 115
0.092667 0.037379 1.489464 97 96 96
0.092756 -0.056907 1.486013 75 74 74
0.093945 -0.060093 1.484406 95 100 113
0.093799 -0.042391 1.479837 118 103 102
0.095491 -0.054741 1.484017 101 93 93
0.095571 -0.046340 1.481964 108 95 94
0.084004 0.316190 1.302689 100 90 89
0.096077 -0.033158 1.480549 110 96 97
0.097328 -0.048700 1.483653 106 96 97
0.098151 -0.051257 1.486262 106 100 102
0.098425 -0.038443 1.483485 113 92 96
0.099699 -0.006535 1.482923 95 81 82
0.112219 -0.189708 1.642927 80 83 82
0.101779 -0.052542 1.487071 108 106 106
0.109810 -0.087483 1.572715 87 87 87
0.103942 -0.035891 1.485941 68 63 65
0.089533 0.321952 1.263744 78 71 72
0.105553 -0.059726 1.468914 93 86 88
0.090753 0.230383 1.298245 95 101 102
0.107450 -0.032171 1.487690 113 101 100
0.117699 0.078989 1.030118 98 98 98
0.091894 0.335840 1.268651 86 83 83
0.091894 0.335840 1.268651 62 66 73
0.116195 0.018557 1.595796 110 100 101
0.120689 -0.200196 1.647082 93 91 91
0.113126 0.227585 1.494428 106 103 104
0.110935 0.059110 1.478925 57 53 54
0.114626 -0.020449 1.493135 134 126 127
0.144293 0.005568 1.578295 111 101 102
0.118060 -0.030910 1.495961 97 88 89
0.099593 0.332083 1.260347 101 91 91
0.118743 -0.040420 1.497657 101 91 91
0.094539 -0.112157 1.185677 150 187 204
0.119589 -0.025157 1.497912 108 94 96
0.120806 -0.068120 1.510084 104 91 91
0.132432 -0.190648 1.653995 112 97 99
0.101551 0.316816 1.263964 111 100 103
0.120526 -0.027792 1.492187 86 72 72
0.102716 0.309894 1.264977 112 107 107
0.121973 -0.037852 1.500094 128 121 123
0.133708 -0.065439 1.634058 92 85 85
0.122367 -0.032030 1.497465 83 77 78
0.104714 0.326090 1.271558 120 114 124
0.116506 0.317780 1.418953 106 98 99
0.106621 0.337991 1.274268 112 104 106
0.121339 0.186568 1.432204 110 105 105
0.143970 0.199262 1.693141 76 75 76
0.108786 0.309199 1.266926 145 133 134
0.107340 0.310655 1.239679 96 116 152
0.110604 0.326796 1.275709 100 99 98
0.145932 -0.188392 1.673069 74 78 77
0.106501 -0.022401 1.194707 94 81 80
0.116924 0.359785 1.277166 70 64 66
0.121939 0.291883 1.319721 81 74 75
0.119201 0.305707 1.286707 72 84 113
0.139052 0.157193 1.422081 99 104 112
0.121120 0.305181 1.274113 131 134 135
0.130304 0.286214 1.363885 137 139 138
0.123639 0.308989 1.273953 87 75 74
0.134043 0.282417 1.370988 83 72 73
0.128116 0.351779 1.282231 82 75 87
0.130071 0.348918 1.286257 122 118 118
0.157339 0.303331 1.289556 81 70 70
0.171423 0.210461 1.384449 75 73 75
0.161666 0.338431 1.296520 78 98 134
0.164335 0.291154 1.312179 89 75 77
0.180826 0.281640 1.416287 104 90 91
0.177051 0.210719 1.373301 85 78 91
0.184950 0.208701 1.373585 108 106 106
0.187205 0.211531 1.373740 109 105 106
0.189296 0.209183 1.374556 121 118 119
0.190503 0.222113 1.364180 143 147 146
0.183712 0.340696 1.310153 69 63 62
0.193837 0.208609 1.376500 69 63 62
0.162230 0.195429 1.155410 61 55 55
0.218300 0.212142 1.523251 97 94 94
0.185535 0.062670 1.063262 88 81 82
0.193497 0.340484 1.314518 107 117 153
0.203531 0.330544 1.318962 135 133 133
0.191728 0.293777 1.175153 135 133 133
0.201371 0.269643 1.183726 77 73 74
0.225822 0.313153 1.325965 78 74 71
0.227471 0.343347 1.329747 95 88 95
0.230652 0.313121 1.328673 107 93 94
0.246635 0.337342 1.320682 110 96 95
0.223955 0.276013 1.156882 110 96 96
