ply
format ascii 1.0
element vertex 195
property float x
property float y
property float z
property uchar red
property uchar green
property uchar blue
end_header
-0.247796 -0.178903 1.599184 187 176 166
-0.247796 -0.178903 1.599184 173 175 166
-0.218614 -0.155605 1.591695 196 188 182
-0.218083 -0.067572 1.598487 168 180 171
-0.217916 -0.059712 1.598805 160 190 181
-0.217916 -0.059712 1.598805 174 203 194
-0.207246 0.089874 1.612190 148 171 165
-0.206785 0.108413 1.613564 118 149 146
-0.202146 -0.078825 1.603161 146 160 150
-0.189809 -0.012807 1.613636 196 196 187
-0.190029 0.125610 1.622047 92 99 94
-0.187783 -0.132968 1.607490 161 170 164
-0.188683 0.144319 1.622524 152 169 163
-0.185425 -0.110481 1.611439 117 145 149
-0.179494 -0.080186 1.614934 138 154 153
-0.176030 -0.158288 1.610607 131 181 198
-0.176030 -0.158288 1.610607 167 169 163
-0.169638 -0.132827 1.615644 119 131 127
-0.160571 -0.089906 1.622706 129 128 122
-0.151046 -0.182960 1.620875 109 111 107
-0.149585 -0.148889 1.622948 147 148 143
-0.147136 -0.145022 1.624163 108 124 125
-0.139095 -0.150756 1.628430 176 180 172
-0.138908 -0.155020 1.629714 108 124 124
-0.129298 -0.140542 1.632914 110 123 133
-0.132205 -0.051928 2.100088 102 118 123
-0.102720 -0.159241 1.644252 105 117 119
-0.088660 0.184018 1.514922 105 113 106
-0.094818 -0.159843 1.646999 132 141 134
-0.092929 0.288583 1.675264 137 160 161
-0.090898 -0.067916 1.701405 127 130 133
-0.083379 -0.087896 1.600603 131 130 129
-0.072188 -0.192597 1.655784 109 114 114
-0.056835 0.188227 1.517164 151 192 206
-0.044673 0.214788 1.520132 102 104 106
-0.044673 0.214788 1.520132 147 150 152
-0.040350 0.197773 1.521351 108 107 107
-0.030738 -0.086245 1.563152 90 97 101
-0.019526 0.376503 1.259489 91 98 103
-0.008425 0.322691 1.262823 110 110 111
-0.009571 -0.181465 1.630593 114 127 130
-0.009691 -0.169519 1.651262 122 162 179
-0.005649 0.375690 1.266119 112 115 117
-0.005526 0.369938 1.246039 84 92 100
-0.002283 0.012583 1.524269 102 102 105
0.001525 0.167643 1.666951 142 167 163
0.001956 0.369310 1.275827 142 166 164
0.002618 -0.019677 1.522177 121 156 162
0.002735 -0.046993 1.526616 117 158 176
0.002735 -0.046993 1.526616 95 108 115
0.003932 -0.028319 1.523100 106 112 114
0.003932 -0.028319 1.523100 124 123 122
0.007650 0.176871 1.668588 88 88 100
0.007803 -0.022304 1.523004 134 126 119
0.008308 -0.043273 1.525510 117 156 176
0.009372 0.325749 1.267695 100 106 111
0.009689 0.322980 1.268120 148 141 139
0.010172 0.306225 1.322943 129 134 141
0.016978 -0.088104 1.741244 115 107 108
0.015055 -0.071956 1.535488 88 93 93
0.018761 -0.039062 1.525112 99 98 98
0.019521 -0.025172 1.523047 98 103 104
0.019938 -0.004825 1.523281 131 142 137
0.022196 -0.068179 1.533643 105 112 118
0.022224 0.013992 1.526151 127 122 117
0.022833 -0.004147 1.523797 115 130 149
0.023176 -0.035217 1.525785 73 83 83
0.025294 -0.044443 1.526628 107 110 111
0.026029 -0.030514 1.524005 119 123 127
0.026593 0.000261 1.523901 92 109 122
0.027976 -0.034963 1.525477 121 152 151
0.028066 -0.041961 1.526964 115 117 117
0.029612 0.013983 1.526193 89 94 93
0.030487 -0.040390 1.526107 128 117 116
0.030726 -0.052884 1.529257 89 101 106
0.033725 -0.087903 1.648305 100 116 128
0.032063 -0.024592 1.525239 125 131 135
0.033098 -0.005068 1.524532 129 127 129
0.033425 -0.046361 1.528199 109 113 115
0.033749 0.054362 1.542098 117 120 126
0.034320 -0.049577 1.529553 108 111 117
0.035286 -0.042965 1.527938 152 150 155
0.037606 -0.037116 1.527619 149 145 144
0.037606 -0.037116 1.527619 120 114 114
0.037788 -0.046254 1.529006 99 110 117
0.038875 -0.030032 1.526215 144 143 144
0.059084 -0.026647 1.768867 118 124 124
0.042339 0.046150 1.540256 115 121 123
0.042306 -0.022943 1.526774 108 134 161
0.043876 -0.038986 1.528858 126 143 167
0.045706 -0.041713 1.530742 87 86 89
0.046883 -0.010814 1.528229 92 93 96
0.047414 0.003258 1.529785 109 119 125
0.048562 -0.000275 1.529158 70 69 74
0.050523 -0.041331 1.530798 108 110 114
0.051130 -0.060997 1.536277 102 109 114
0.050979 -0.004782 1.529571 123 148 153
0.051717 0.045628 1.542472 135 158 162
0.059189 -0.199238 1.715875 118 113 114
0.052915 -0.012464 1.529512 80 78 79
0.053786 -0.047345 1.533109 100 123 149
0.054187 0.016074 1.534058 130 138 142
0.054637 0.041819 1.542213 80 74 72
0.055577 -0.001889 1.531026 103 102 117
0.056531 0.005036 1.532110 116 112 118
0.056676 -0.039512 1.533109 124 126 126
0.056620 -0.009759 1.531003 130 155 158
0.057532 0.001570 1.531968 136 130 127
0.059329 0.041580 1.544334 118 120 117
0.059221 -0.013321 1.532204 111 126 130
0.060027 0.011761 1.534845 126 160 180
0.060418 0.004595 1.533777 105 142 161
0.060381 -0.017341 1.531641 122 114 114
0.060955 0.025113 1.538498 122 114 116
0.061121 -0.038256 1.534201 83 80 87
0.062429 0.022712 1.538861 92 101 104
0.062314 -0.011079 1.533422 88 86 87
0.062656 -0.005277 1.533060 85 84 85
0.064438 -0.008550 1.535098 100 101 100
0.068353 0.028781 1.542044 79 89 90
0.068538 -0.058117 1.542246 130 136 134
0.068333 -0.014400 1.535448 88 84 87
0.069005 0.042616 1.548292 125 129 130
0.069168 -0.010067 1.536550 102 100 99
0.069847 -0.067357 1.543674 102 100 99
0.061257 0.306859 1.304902 84 77 80
0.073393 0.027071 1.543767 110 107 109
0.075446 -0.074675 1.550325 108 105 109
0.075061 -0.051281 1.540841 134 125 123
0.076844 -0.054627 1.543003 135 136 137
0.076763 -0.037276 1.541043 131 125 127
0.077011 -0.030561 1.539776 129 123 124
0.078485 -0.057169 1.544451 130 126 133
0.078485 -0.057169 1.544451 155 158 161
0.079523 -0.034475 1.541570 108 114 128
0.067620 0.339418 1.299903 151 156 163
0.082070 -0.028311 1.541778 79 79 76
0.082665 -0.035868 1.542622 112 110 114
0.083326 -0.051479 1.545164 92 99 99
0.084131 0.027733 1.548814 141 153 154
0.084389 0.024076 1.549512 120 124 146
0.084336 -0.021711 1.542315 101 106 102
0.086236 -0.015721 1.543432 126 120 122
0.097048 -0.206595 1.730688 139 134 136
0.087296 -0.030972 1.544422 126 110 110
0.097052 -0.092191 1.693484 103 104 107
0.088526 -0.048672 1.547653 125 124 123
0.091981 -0.022450 1.420149 86 90 91
0.101707 -0.212791 1.732825 93 101 103
0.092796 -0.048848 1.551298 128 124 127
0.093228 -0.041294 1.548661 83 84 101
0.094351 0.032935 1.558370 161 162 163
0.094351 0.032935 1.558370 143 141 141
0.094743 -0.022283 1.550320 94 97 113
0.095454 -0.038323 1.550156 83 87 95
0.098652 -0.063181 1.558822 117 119 119
0.100850 -0.034802 1.554080 114 115 109
0.102188 -0.051165 1.557716 134 131 133
0.103066 -0.053846 1.560616 132 135 145
0.103326 -0.040354 1.557360 112 144 160
0.118671 -0.200077 1.737282 150 148 148
0.106870 -0.055193 1.561453 150 148 148
0.109118 -0.037641 1.559897 138 143 143
0.092915 0.334192 1.311161 164 162 166
0.094159 0.239632 1.351503 158 155 160
0.095383 0.348733 1.316233 167 163 164
0.095383 0.348733 1.316233 112 129 142
0.127643 -0.211215 1.741917 141 168 168
0.120334 -0.021305 1.567370 130 134 134
0.123955 -0.032312 1.570583 101 94 95
0.103323 0.344655 1.307040 124 118 119
0.105371 0.328857 1.311154 140 143 146
0.106586 0.321677 1.312313 78 74 75
0.108687 0.338653 1.319183 78 74 75
0.110675 0.351089 1.321926 100 105 111
0.152211 0.213153 1.787159 119 109 110
0.112885 0.320995 1.314284 118 119 124
0.114811 0.339478 1.323557 150 146 146
0.121365 0.373821 1.324516 93 86 87
0.125705 0.316963 1.321845 118 115 116
0.135779 0.298918 1.419966 101 101 102
0.128312 0.320924 1.321554 127 155 157
0.178731 0.220136 1.442669 126 125 127
0.167844 0.352074 1.344858 105 104 108
0.184487 0.220246 1.430375 84 80 82
0.195045 0.221124 1.430641 123 120 122
0.197227 0.218686 1.431536 129 130 130
0.198380 0.232046 1.419931 109 111 112
0.190790 0.354770 1.359263 121 120 120
0.200965 0.354669 1.363854 132 135 134
0.211407 0.344433 1.368666 118 128 130
0.197916 0.303345 1.213286 124 139 139
0.236314 0.358089 1.379896 110 126 126
0.256072 0.351709 1.369765 90 79 79
0.230934 0.284697 1.193460 113 108 101
