ply
format ascii 1.0
element vertex 763
property float x
property float y
property float z
property uchar red
property uchar green
property uchar blue
end_header
-0.163942 0.120808 1.316687 187 176 166
-0.387543 0.074649 2.726356 173 175 166
-0.261047 -0.043976 1.615249 196 188 182
-0.328373 -0.143618 2.059057 168 180 171
-0.333363 0.250330 2.070037 160 190 181
-0.302189 -0.117644 1.926987 174 203 194
-0.298028 -0.120110 1.921696 148 171 165
-0.249964 0.063116 1.601312 118 149 146
-0.248016 -0.178944 1.600608 146 160 150
-0.248016 -0.178944 1.600608 196 196 187
-0.333141 0.169917 2.524109 92 99 94
-0.279298 0.185665 1.915497 161 170 164
-0.289941 0.168314 2.127586 152 169 163
-0.298064 0.087510 2.345686 117 145 149
-0.272355 0.010625 1.873747 138 154 153
-0.226979 0.200439 1.743713 131 181 198
-0.236750 0.024893 1.595147 167 169 163
-0.243824 0.315619 1.625241 119 131 127
-0.313634 0.067373 2.251563 129 128 122
-0.242439 0.328778 1.702902 109 111 107
-0.115392 -0.014904 0.847801 147 148 143
-0.177100 0.329274 1.366697 108 124 125
-0.308538 0.043395 2.204923 176 180 172
-0.384465 0.324593 2.637965 108 124 124
-0.255636 0.354410 1.970066 110 123 133
-0.224511 -0.099070 1.580413 102 118 123
-0.302681 0.157007 2.127996 105 117 119
-0.247515 0.207462 1.769512 105 113 106
-0.285636 -0.029555 2.030036 132 141 134
-0.217466 0.245307 1.635773 137 160 161
-0.289392 0.031371 2.061719 127 130 133
-0.384699 0.513512 2.708543 131 130 129
-0.301778 0.000021 2.204444 109 114 114
-0.097628 0.109317 1.228167 151 192 206
-0.219601 -0.131846 1.596118 102 104 106
-0.218836 -0.155674 1.593325 147 150 152
-0.218419 -0.067532 1.600985 108 107 107
-0.218262 -0.059658 1.601386 90 97 101
-0.218262 -0.059658 1.601386 91 98 103
-0.300947 0.342078 2.269211 110 110 111
-0.290411 0.082953 2.149461 114 127 130
-0.280645 0.072720 2.106086 122 162 179
-0.300279 0.051331 2.291529 112 115 117
-0.207757 0.090297 1.616272 84 92 100
-0.207627 0.118039 1.617905 102 102 105
-0.207318 0.108901 1.617833 142 167 163
-0.201941 0.421133 1.650588 142 166 164
-0.202447 -0.078848 1.605574 121 156 162
-0.178341 0.369081 1.510029 117 158 176
-0.253485 0.197176 2.442114 95 108 115
-0.254340 0.382157 2.264605 106 112 114
-0.244867 0.064877 2.065847 124 123 122
-0.201456 -0.136713 1.708673 88 88 100
-0.190169 -0.012733 1.616735 134 126 119
-0.190542 0.126119 1.626527 117 156 176
-0.125476 0.067378 1.551276 100 106 111
-0.188007 -0.133111 1.609410 148 141 139
-0.189212 0.144901 1.627194 129 134 141
-0.205476 0.271169 1.803499 115 107 108
-0.185672 -0.110607 1.613591 88 93 93
-0.179767 -0.080282 1.617395 99 98 98
-0.246338 -0.178981 2.214557 98 103 104
-0.179277 -0.096249 1.616484 131 142 137
-0.172955 0.239202 1.537410 105 112 118
-0.187466 0.318321 1.724992 127 122 117
-0.176216 -0.158490 1.612302 115 130 149
-0.176216 -0.158490 1.612302 73 83 83
-0.178487 -0.003057 1.719822 107 110 111
-0.236499 0.520791 2.216264 119 123 127
-0.168269 -0.113340 1.600380 92 109 122
-0.188673 -0.054757 1.933151 121 152 151
-0.169845 -0.133025 1.617608 115 117 117
-0.110316 0.079173 1.652321 89 94 93
-0.188777 0.036850 2.083525 128 117 116
-0.083447 0.167515 1.659244 89 101 106
-0.160811 -0.090073 1.625118 100 116 128
-0.159124 0.413262 1.689719 125 131 135
-0.146435 0.121054 2.207386 129 127 129
-0.154610 -0.125066 1.624603 109 113 115
-0.137759 0.419483 1.539255 117 120 126
-0.151189 -0.183261 1.622392 108 111 117
-0.134155 0.389371 1.456382 152 150 155
-0.149758 -0.149164 1.624801 149 145 144
-0.202433 0.502581 2.179348 120 114 114
-0.147310 -0.145301 1.626060 99 110 117
-0.211817 0.175164 2.335337 144 143 144
-0.172883 0.228467 1.889166 118 124 124
-0.144820 -0.143296 1.627833 115 121 123
-0.162638 0.424974 1.904173 108 134 161
-0.161774 -0.014279 1.841887 126 143 167
-0.156941 0.493791 1.901024 87 86 89
-0.139258 -0.151068 1.630297 92 93 96
-0.125934 0.161147 2.162578 109 119 125
-0.139066 -0.155339 1.631545 70 69 74
-0.139542 0.436382 1.653962 108 110 114
-0.174656 0.438620 2.038282 102 109 114
-0.129460 -0.140872 1.634903 123 148 153
-0.057779 0.167127 1.344733 135 158 162
-0.142556 0.243357 1.825938 118 113 114
-0.148406 0.363793 1.895228 80 78 79
-0.171288 0.169727 2.301385 100 123 149
-0.119311 0.433762 1.725953 130 138 142
-0.143738 -0.243510 2.063615 80 74 72
-0.103907 0.326607 1.524173 103 102 117
-0.069418 -0.012429 1.404012 116 112 118
-0.113063 0.078418 1.799926 124 126 126
-0.089252 0.103006 1.542505 130 155 158
-0.092705 0.310618 1.423475 136 130 127
-0.097772 0.216849 1.503425 118 120 117
-0.118368 -0.010381 1.875065 111 126 130
-0.126345 0.302118 1.927929 126 160 180
-0.134661 -0.051738 2.106934 105 142 161
-0.132446 -0.053023 2.104613 122 114 114
-0.102842 -0.159674 1.646131 122 114 116
-0.092243 0.277673 1.459493 83 80 87
-0.136544 -0.013518 2.210651 92 101 104
-0.063710 0.260724 1.333275 88 86 87
-0.089952 0.179708 1.517491 85 84 85
-0.094337 -0.038762 1.603712 100 101 100
-0.123076 0.076670 2.088218 79 89 90
-0.089733 0.176640 1.519316 130 136 134
-0.088897 0.184734 1.519273 88 84 87
-0.027146 0.183104 1.739233 125 129 130
-0.094932 -0.160301 1.648890 102 100 99
-0.099070 -0.065165 1.715211 102 100 99
-0.090276 0.024287 1.660173 84 77 80
-0.090276 0.024287 1.660173 110 107 109
-0.047463 0.141555 1.678573 108 105 109
-0.088588 0.094278 1.561490 134 125 123
-0.106669 0.078666 1.965508 135 136 137
-0.088169 -0.036655 1.604981 131 125 127
-0.113471 -0.026189 2.034096 129 123 124
-0.103857 -0.014720 1.932398 130 126 133
-0.110214 -0.048707 2.000733 155 158 161
-0.087561 -0.096792 1.610185 108 114 128
-0.093261 0.289573 1.681405 151 156 163
-0.085165 0.294754 1.697339 79 79 76
-0.085640 0.098892 1.548453 112 110 114
-0.084539 0.294406 1.696498 92 99 99
-0.091060 -0.068343 1.704340 141 153 154
-0.088469 -0.090614 1.662016 120 124 146
-0.055930 0.185319 1.974279 101 106 102
-0.083512 -0.088176 1.603015 126 120 122
-0.084569 0.042677 1.629006 139 134 136
-0.078141 0.214791 1.499567 126 110 110
-0.106654 -0.027493 2.035033 103 104 107
-0.098835 -0.027891 2.059923 125 124 123
-0.036872 0.097913 1.414328 86 90 91
-0.049730 0.249195 2.076907 93 101 103
-0.004623 0.116627 1.424681 128 124 127
-0.030679 0.172292 1.610179 83 84 101
-0.095328 -0.037573 1.951204 161 162 163
-0.077657 0.316168 1.577836 143 141 141
-0.095912 -0.029247 2.028254 94 97 113
-0.079044 -0.121901 1.674411 83 87 95
-0.074949 -0.078972 1.620674 117 119 119
-0.087735 -0.018880 1.964612 114 115 109
-0.072653 -0.097531 1.629907 134 131 133
-0.067260 0.017987 1.602586 132 135 145
-0.072264 -0.193156 1.657423 112 144 160
-0.075198 0.178320 1.799805 150 148 148
-0.067493 0.335042 1.579709 150 148 148
-0.067516 0.337063 1.579655 138 143 143
0.021279 0.147450 1.575900 164 162 166
-0.079253 -0.040602 1.911273 158 155 160
-0.061918 0.030953 1.622075 167 163 164
-0.057288 -0.101966 1.420231 112 129 142
-0.060591 0.183107 1.509050 141 168 168
-0.061311 0.355803 1.543170 130 134 134
-0.049306 0.364895 1.254613 101 94 95
-0.071384 0.012936 1.843006 124 118 119
0.014388 0.108459 1.416329 140 143 146
-0.064595 -0.045447 1.672339 78 74 75
-0.064952 -0.129019 1.725899 78 74 75
-0.056987 0.188897 1.521556 100 105 111
-0.055488 0.199837 1.416181 119 109 110
-0.062776 -0.069473 1.692904 118 119 124
-0.060457 -0.130609 1.648943 150 146 146
0.005205 0.135772 1.529051 93 86 87
-0.055110 0.262365 1.510365 118 115 116
-0.033048 0.008602 1.395717 101 101 102
-0.041339 0.361375 1.260251 127 155 157
-0.054933 -0.082548 1.671359 126 125 127
-0.058221 0.058349 1.937680 105 104 108
-0.044799 0.215553 1.524783 84 80 82
-0.044799 0.215553 1.524783 123 120 122
-0.036494 -0.013118 1.617353 129 130 130
-0.056041 0.423706 2.094950 109 111 112
-0.046177 -0.103394 1.630731 121 120 120
-0.012836 0.056341 1.335013 132 135 134
-0.019359 0.346481 1.647459 118 128 130
-0.048693 0.346839 1.704126 124 139 139
-0.040461 0.198449 1.525854 110 126 126
-0.039268 0.216279 1.454992 90 79 79
0.044310 0.098193 1.530348 113 108 101
-0.042021 -0.038356 1.721717 94 87 88
-0.037996 0.199279 1.526630 100 100 103
-0.027431 0.136937 1.008262 122 120 124
-0.038533 -0.092907 1.632101 125 129 148
-0.038900 -0.082751 1.633728 147 143 156
-0.033177 -0.120792 1.392802 158 151 152
-0.038152 -0.193783 1.638777 101 90 94
-0.041166 0.000132 1.778123 115 104 105
-0.033853 0.037424 1.539379 118 111 117
-0.044512 0.055737 1.965072 127 122 123
-0.035776 0.013129 1.819526 131 125 126
-0.035776 0.013129 1.819526 125 121 122
-0.040173 -0.005333 1.983636 103 99 100
-0.042102 0.073446 2.019424 99 96 97
-0.030792 -0.086557 1.565432 104 88 87
-0.032631 0.070918 1.849445 125 124 128
-0.033680 -0.041994 1.690788 105 117 116
-0.034209 0.230906 1.618729 119 128 139
-0.020822 -0.047012 1.479216 116 100 101
-0.029065 -0.063903 1.623951 128 107 106
-0.028801 -0.019778 1.708889 103 98 102
-0.029388 -0.061716 1.738435 104 95 95
-0.029388 -0.061716 1.738435 102 144 171
-0.025166 -0.062995 1.538866 120 114 116
-0.025099 -0.005543 1.609355 105 103 103
-0.025451 -0.099125 1.630398 66 55 54
-0.019502 0.378406 1.263902 155 154 162
-0.020967 -0.022832 1.527685 92 92 99
-0.013950 -0.083949 1.554105 113 107 107
-0.022316 -0.172455 1.637664 105 97 96
-0.025275 -0.033226 1.860003 119 115 118
-0.014796 -0.031062 1.879529 139 138 138
-0.017870 0.018722 1.529773 127 127 126
-0.025266 0.059350 2.016320 157 147 145
-0.010340 0.083599 1.529000 91 84 84
-0.016818 -0.082641 2.028652 133 130 133
-0.017874 -0.159110 1.638594 114 95 97
-0.021357 -0.040684 1.892338 106 102 102
-0.020882 -0.013037 1.847697 117 111 113
-0.017661 -0.116931 1.636982 89 99 98
0.002427 0.070382 1.611795 122 109 109
-0.015051 0.084367 1.562877 113 140 140
-0.001022 -0.021913 1.717320 103 103 103
-0.015197 0.316004 1.465339 129 123 125
-0.016769 0.244131 1.470063 129 124 126
-0.012885 0.015803 1.529738 139 147 150
-0.014082 -0.006773 1.622137 120 128 128
-0.010730 0.287484 1.347288 116 108 113
-0.018166 0.445301 2.021479 90 86 85
-0.011699 -0.133361 1.635785 168 162 167
-0.008372 0.324263 1.266830 123 113 115
-0.003863 -0.037917 1.690050 97 96 96
-0.009587 -0.182096 1.632260 75 74 74
-0.009710 -0.170182 1.653139 95 100 113
-0.010150 -0.020479 1.713185 118 103 102
-0.005582 0.377555 1.270558 101 93 93
-0.005453 0.371791 1.250316 108 95 94
-0.006874 -0.184521 1.631859 100 90 89
-0.006435 0.043323 1.706697 110 96 97
0.002194 0.001622 1.590132 106 96 97
-0.001996 -0.059834 1.669024 106 100 102
-0.001879 -0.059936 1.668843 113 92 96
-0.005150 0.055025 1.863946 95 81 82
-0.005822 0.009635 1.895000 80 83 82
-0.004055 0.415328 1.639171 108 106 106
-0.002995 -0.040050 1.576992 87 87 87
-0.002293 0.012507 1.527149 68 63 65
0.000508 0.318963 1.378865 78 71 72
-0.000834 -0.049504 1.529277 93 86 88
-0.001217 -0.039225 1.579755 95 101 102
-0.001078 0.011621 1.793782 113 101 100
0.000008 0.059193 1.868808 98 98 98
0.001505 0.167892 1.672118 86 83 83
0.001764 0.041443 1.538645 62 66 73
0.002044 0.371111 1.280268 110 100 101
0.002406 -0.026606 1.526135 93 91 91
0.002616 -0.019842 1.524760 106 103 104
0.002733 -0.047228 1.528986 57 53 54
0.002733 -0.047228 1.528986 134 126 127
0.005946 -0.097211 1.693623 111 101 102
0.003008 0.307074 1.330063 97 88 89
0.003932 -0.028509 1.525615 101 91 91
0.003932 -0.028509 1.525615 101 91 91
0.009109 -0.091980 1.938038 150 187 204
0.004543 0.004139 1.579782 108 94 96
0.004543 0.004139 1.579782 104 91 91
0.045481 0.172635 1.688275 112 97 99
0.006343 -0.085458 1.654341 111 100 103
0.007137 0.013254 1.752936 86 72 72
0.006705 -0.078452 1.672102 112 107 107
0.006705 -0.078452 1.672102 128 121 123
0.007776 0.012322 1.764837 92 85 85
0.006885 -0.058284 1.533050 83 77 78
0.007649 0.177147 1.673845 120 114 124
0.017787 -0.042294 1.789905 106 98 99
0.007533 -0.058085 1.532234 112 104 106
0.007809 -0.022487 1.525571 110 105 105
0.008076 0.046746 1.538551 76 75 76
0.008313 -0.043509 1.527908 145 133 134
0.008859 -0.111219 1.601339 96 116 152
0.007944 0.286371 1.359297 100 99 98
0.011474 -0.112491 1.737255 74 78 77
0.010174 -0.143709 1.588240 94 81 80
0.017298 0.281900 1.297501 70 64 66
0.010597 -0.029869 1.525909 81 74 75
0.012249 -0.020617 1.743262 72 84 113
0.008572 0.371401 1.945140 99 104 112
0.009476 0.327298 1.271742 131 134 135
0.017185 0.202074 1.950124 137 139 138
0.009793 0.324513 1.272149 87 75 74
0.010259 0.307603 1.327161 83 72 73
0.013579 -0.149700 1.655089 82 75 87
0.011833 0.290495 1.360207 122 118 118
0.019732 -0.021488 1.718966 81 70 70
0.012369 0.059058 1.538522 75 73 75
0.016970 -0.088875 1.744641 78 98 134
0.017420 -0.095807 1.746739 89 75 77
0.019845 0.359224 1.665147 104 90 91
0.013231 0.333459 1.557958 85 78 91
0.017866 -0.095687 1.746071 108 106 106
0.015069 -0.072284 1.537688 109 105 106
0.017289 0.154774 1.665471 121 118 119
0.020319 -0.052035 1.947616 143 147 146
0.014898 0.290386 1.361647 69 63 62
0.017701 -0.127816 1.592353 69 63 62
0.017263 -0.053905 1.531724 61 55 55
0.017230 -0.005535 1.525869 97 94 94
0.015488 0.316664 1.326878 88 81 82
0.018783 -0.039310 1.527553 107 117 153
0.029441 0.105604 1.428909 135 133 133
0.019546 -0.025386 1.525598 135 133 133
0.019966 -0.004990 1.526013 77 73 74
0.023094 0.094453 1.776329 78 74 71
0.022219 -0.068511 1.535873 95 88 95
0.020623 0.303707 1.510792 107 93 94
0.022258 0.013867 1.529064 110 96 95
0.022865 -0.004317 1.526537 110 96 96
0.023184 0.043549 1.537281 113 100 102
0.023205 -0.035466 1.528263 85 78 81
0.024600 -0.120179 1.576278 74 70 71
0.024363 0.034096 1.534999 73 72 73
0.025482 0.052239 1.542033 99 94 93
0.025325 -0.044719 1.529032 69 63 65
0.026063 -0.030755 1.526516 99 88 89
0.027893 0.008310 1.688335 69 64 65
0.030172 -0.080499 1.729074 116 111 108
0.026632 0.000094 1.526685 106 95 97
0.027932 0.060625 1.548020 67 64 65
0.029624 -0.082300 1.650061 75 70 71
0.028013 -0.035221 1.527959 143 129 129
0.028101 -0.042238 1.529391 82 76 77
0.032135 -0.136296 1.736778 64 59 62
0.032135 -0.136296 1.736778 73 73 76
0.029914 -0.137783 1.621182 85 80 79
0.028258 -0.013610 1.526760 85 79 80
0.024526 0.287700 1.339704 111 108 106
0.029659 0.013843 1.529109 144 141 135
0.028722 0.284716 1.176358 88 93 94
0.025200 0.253738 1.437934 81 71 70
0.030527 -0.040667 1.528548 88 82 82
0.030764 -0.053194 1.531602 79 73 72
0.029827 0.260093 1.474267 80 71 72
0.033767 -0.088526 1.650898 103 94 92
0.029178 0.276498 1.444779 119 114 115
0.032645 0.034288 1.637665 120 115 115
0.032108 -0.024834 1.527814 115 100 100
0.033759 0.048869 1.642128 135 131 126
0.034638 -0.103874 1.613513 102 84 85
0.033147 -0.005263 1.527273 106 87 86
0.033655 -0.089258 1.547415 103 116 124
0.033468 -0.046661 1.530599 151 151 126
0.033811 0.054307 1.545461 134 122 97
0.031087 0.322747 1.378065 111 107 109
0.030940 0.291738 1.379157 77 71 72
0.034364 -0.049888 1.531934 110 101 102
0.034364 -0.049888 1.531934 69 60 61
0.035332 -0.043261 1.530367 134 116 116
0.033936 0.285180 1.382926 119 103 103
0.037657 -0.037403 1.530098 108 105 104
0.037657 -0.037403 1.530098 105 119 158
0.037837 -0.046565 1.531413 142 124 123
0.038538 -0.100846 1.544053 102 111 117
0.038929 -0.030303 1.528753 138 121 95
0.043657 0.095119 1.768188 103 90 90
0.047636 0.031417 1.866917 106 110 111
0.047636 0.031417 1.866917 88 94 123
0.038231 -0.057634 1.475998 103 95 95
0.046875 -0.017451 1.590000 103 95 95
0.041410 -0.009226 1.527415 132 147 152
0.049108 0.351801 1.769042 99 98 97
0.059096 -0.027365 1.774105 98 96 95
0.037975 0.285456 1.389677 82 75 75
0.042417 0.046055 1.543541 86 82 83
0.042367 -0.023205 1.529376 73 70 71
0.049047 -0.140150 1.725308 105 93 92
0.043936 -0.039293 1.531332 95 91 93
0.052364 -0.103601 1.767783 122 115 115
0.045768 -0.042033 1.533204 110 98 98
0.045815 -0.033030 1.530355 96 92 91
0.042294 0.351483 1.368798 96 92 91
0.047663 0.293634 1.564340 91 79 78
0.046955 -0.011058 1.530950 163 164 164
0.046995 -0.006918 1.530800 167 173 179
0.047491 0.003047 1.532638 104 103 102
0.054126 0.382295 1.934601 117 112 111
0.048639 -0.000497 1.531976 91 89 89
0.042862 0.311927 1.331502 74 71 72
0.057841 -0.131619 1.771497 102 100 99
0.041819 0.322746 1.286258 118 113 112
0.046576 0.099840 1.479612 104 98 97
0.050593 -0.041660 1.533267 101 112 123
0.070774 -0.030922 1.758707 101 89 87
0.051196 -0.061380 1.538601 106 100 102
0.051059 -0.005021 1.532353 73 67 69
0.051814 0.045509 1.545769 116 115 114
0.052424 -0.104233 1.561182 112 97 98
0.059248 -0.200231 1.717883 107 115 115
0.052997 -0.012726 1.532228 106 114 114
0.053859 -0.047698 1.535539 76 69 67
0.053919 -0.009327 1.537583 99 143 180
0.054280 0.015877 1.537049 99 91 84
0.054738 0.041683 1.545479 93 79 78
0.056672 0.213751 1.598572 77 74 73
0.045829 0.322282 1.288729 112 122 121
0.054562 -0.009539 1.536696 142 137 138
0.054648 -0.034437 1.533778 113 109 109
0.063911 0.050121 1.830580 84 75 76
0.052273 0.239637 1.516527 124 126 132
0.055667 -0.002132 1.533843 89 77 77
0.059582 -0.199527 1.636868 105 93 92
0.073442 0.040724 1.560969 91 88 86
0.056624 0.004807 1.534992 123 122 122
0.056756 -0.039854 1.535611 85 75 77
0.056709 -0.010025 1.533754 90 78 79
0.057626 0.001330 1.534823 73 93 130
0.059440 0.041430 1.547609 134 132 128
0.059313 -0.013604 1.534931 98 104 121
0.060128 0.011539 1.537807 90 99 108
0.060518 0.004354 1.536670 121 112 99
0.060473 -0.017635 1.534330 100 107 138
0.061063 0.024921 1.541597 97 87 88
0.061208 -0.038606 1.536723 96 87 85
0.071710 -0.133236 1.761714 89 77 75
0.062539 0.022510 1.541945 142 141 147
0.086521 0.144875 1.128608 85 77 78
0.062412 -0.011365 1.536176 83 83 109
0.063479 0.064145 1.561124 118 104 104
0.062757 -0.005548 1.535864 111 117 116
0.063985 -0.080935 1.549748 110 104 108
0.063740 -0.041955 1.537817 125 121 117
0.061364 0.284935 1.470085 179 179 165
0.070219 0.143864 1.406338 90 89 97
0.070554 0.151298 1.680714 142 132 124
0.064541 -0.008836 1.537884 99 111 120
0.061082 0.016735 1.451356 77 67 65
0.065601 0.044816 1.551098 59 71 104
0.060489 0.043453 1.443633 84 83 92
0.067204 -0.109033 1.576402 125 121 122
0.074424 -0.027757 1.639448 116 122 130
0.066229 0.033022 1.546584 123 129 135
0.057393 0.309535 1.334082 122 128 133
0.067518 0.071486 1.567676 111 107 101
0.067958 -0.034066 1.538699 87 86 84
0.068477 0.028579 1.545201 122 118 120
0.068631 -0.058542 1.544645 97 105 106
0.068441 -0.014710 1.538190 118 109 119
0.069136 0.042444 1.551608 112 123 119
0.122089 0.236812 1.752149 97 92 88
0.069278 -0.010370 1.539335 114 100 98
0.103219 0.160819 1.318587 82 75 73
0.069939 -0.067807 1.545992 144 147 144
0.071196 -0.014012 1.536271 95 86 86
0.070408 -0.023943 1.492381 92 91 90
0.074285 -0.059356 1.602331 63 69 68
0.074285 -0.059356 1.602331 96 96 99
0.062221 0.309704 1.335286 128 114 114
0.074146 0.219489 1.585422 118 110 110
0.080893 -0.213074 1.724135 110 116 113
0.062705 0.312637 1.333388 118 115 114
0.061498 0.308164 1.308995 66 73 106
0.061498 0.308164 1.308995 82 89 121
0.073526 0.026850 1.546921 108 113 110
0.073534 -0.048446 1.542657 77 82 81
0.080794 0.163692 1.690161 83 80 79
0.077715 0.071561 1.631969 86 75 75
0.078535 -0.041259 1.644663 82 85 80
0.078535 -0.041259 1.644663 62 63 60
0.075544 -0.075164 1.552631 93 84 85
0.075166 -0.051702 1.543294 83 85 88
0.075166 -0.051702 1.543294 112 105 106
0.086364 -0.096757 1.728027 87 91 90
0.065134 -0.035968 1.286652 105 94 94
0.076444 -0.048245 1.543872 103 101 110
0.076444 -0.048245 1.543872 75 83 80
0.076951 -0.055063 1.545440 191 189 168
0.076876 -0.037669 1.543623 88 86 90
0.077128 -0.030936 1.542407 88 86 90
0.079025 0.056340 1.563297 110 100 102
0.067843 0.309348 1.335810 84 94 103
0.078593 -0.057617 1.546874 90 97 88
0.078593 -0.057617 1.546874 63 90 122
0.126132 0.030223 1.749696 90 104 111
0.079642 -0.034868 1.544177 184 181 165
0.079642 -0.034868 1.544177 101 119 124
0.084868 -0.023171 1.432149 73 72 71
0.067897 0.340898 1.304226 85 83 84
0.082027 0.059377 1.568705 101 97 96
0.082027 0.059377 1.568705 115 121 120
0.139202 0.073203 1.667848 163 150 132
0.139327 0.073325 1.667704 141 137 119
0.089280 0.155276 1.688963 91 95 107
0.090730 -0.035010 1.718714 92 101 101
0.082196 -0.028695 1.544441 89 94 98
0.082789 -0.036273 1.545226 114 107 120
0.088489 0.384727 1.623273 121 117 119
0.125704 0.019190 1.454953 81 92 118
0.083444 -0.051926 1.547645 133 128 114
0.089173 -0.138699 1.648794 75 74 85
0.084286 0.027485 1.552009 74 96 122
0.084543 0.023815 1.552678 88 92 90
0.084543 0.023815 1.552678 84 84 86
0.084239 -0.039086 1.546144 114 135 160
0.084330 -0.012187 1.546686 179 177 163
0.071290 0.337398 1.305846 118 123 120
0.093827 -0.124461 1.709898 135 134 129
0.084469 -0.022084 1.545041 178 173 163
0.084024 0.005789 1.521785 157 147 130
0.086374 -0.016085 1.546218 98 109 127
0.097154 -0.207716 1.732750 102 104 106
0.097288 -0.206468 1.732718 86 85 85
0.087429 -0.031378 1.547081 83 91 94
0.088981 0.043785 1.564918 119 132 157
0.097193 -0.093046 1.696500 75 114 141
0.088654 -0.049128 1.550177 127 126 123
0.092122 -0.022569 1.423044 106 101 103
0.092667 -0.035874 1.623395 54 54 53
0.077536 0.356944 1.342099 133 120 102
0.097189 -0.029399 1.694320 107 105 102
0.095991 0.020759 1.667665 120 119 111
0.101816 -0.213935 1.734855 157 143 125
0.091518 -0.044536 1.548996 89 87 87
0.079684 0.308862 1.342529 103 101 107
0.092601 -0.015433 1.550143 110 104 120
0.092931 -0.049320 1.553842 141 135 116
0.093367 -0.041744 1.551258 135 129 137
0.099381 -0.144290 1.651164 157 155 147
0.094529 0.032665 1.561673 125 144 151
0.094529 0.032665 1.561673 89 99 100
0.094894 -0.022694 1.553092 112 116 114
0.096885 0.116187 1.289538 99 92 78
0.096615 0.050823 1.571022 106 100 98
0.095599 -0.038774 1.552791 121 119 112
0.103681 -0.027127 1.683871 150 162 165
0.097452 0.039309 1.566380 122 127 134
0.097545 -0.060341 1.563100 109 116 116
0.097545 -0.060341 1.563100 114 129 132
0.098791 -0.063711 1.561286 109 115 113
0.098611 -0.045021 1.556106 98 101 99
0.123939 0.067057 1.422603 124 119 124
0.099880 0.263188 1.368081 124 119 124
0.100412 -0.058056 1.560778 121 122 126
0.100412 -0.058056 1.560778 129 117 118
0.100487 -0.049185 1.558434 100 94 95
0.087670 0.330299 1.358398 94 97 92
0.101006 -0.035263 1.556770 122 131 125
0.101539 -0.039907 1.557109 163 151 151
0.102338 -0.051674 1.560285 135 128 127
0.103217 -0.054368 1.563180 145 153 159
0.103484 -0.040840 1.560020 152 146 138
0.104812 -0.007130 1.559172 132 141 135
0.086102 -0.046295 1.273183 98 94 103
0.103146 -0.065234 1.514577 112 106 101
0.118809 -0.201255 1.739477 46 49 48
0.107027 -0.055728 1.564010 109 98 76
0.090904 0.327467 1.319716 128 147 154
0.116051 -0.092474 1.659235 109 118 121
0.109812 -0.004429 1.580492 154 134 114
0.109287 -0.038137 1.562601 126 139 131
0.093265 0.335585 1.315507 125 117 105
0.106478 -0.039709 1.500469 120 122 121
0.110358 -0.063652 1.545697 116 110 105
0.112365 -0.025213 1.564616 116 113 121
0.112386 -0.027192 1.564407 83 88 96
0.094440 0.240406 1.355042 135 138 136
0.112973 -0.034204 1.564456 118 120 112
0.107105 -0.052510 1.476679 121 130 121
0.122178 0.079738 1.059362 73 80 80
0.095750 0.350199 1.320724 114 114 114
0.095750 0.350199 1.320724 64 74 75
0.122794 0.020050 1.684726 125 132 129
0.096867 0.339321 1.325104 129 120 116
0.127789 -0.212438 1.744044 107 107 109
0.113284 -0.059639 1.511793 142 126 100
0.116482 -0.026301 1.568353 133 117 108
0.097851 0.324447 1.311654 100 104 99
0.119080 0.240279 1.569805 100 104 99
0.116571 0.062179 1.554073 137 152 146
0.120534 -0.021797 1.570270 120 116 103
0.135824 -0.035462 1.763336 100 97 87
0.121463 -0.035790 1.579001 114 104 96
0.106782 -0.071311 1.380890 102 104 102
0.129861 -0.083410 1.678424 72 92 111
0.149780 0.005144 1.675408 109 95 95
0.123176 -0.028798 1.574545 110 122 124
0.125862 -0.056026 1.586385 157 149 137
0.124155 -0.032846 1.573406 101 98 97
0.103713 0.346094 1.311444 141 156 157
0.124884 -0.042894 1.575338 74 99 99
0.098060 -0.118873 1.233532 119 122 119
0.098060 -0.118873 1.233532 81 75 74
0.125769 -0.026757 1.575515 138 136 132
0.140191 0.112266 1.274466 105 103 100
0.127129 -0.072155 1.589316 124 140 134
0.140236 -0.202312 1.751567 126 142 137
0.105755 0.330198 1.315455 117 128 124
0.126729 -0.029562 1.569096 148 145 143
0.126729 -0.029562 1.569096 113 101 89
0.107337 0.348734 1.325187 132 143 148
0.106968 0.322976 1.316568 108 119 124
0.128282 -0.040176 1.577991 100 103 104
0.113065 -0.056422 1.388047 140 130 111
0.120439 0.370666 1.496872 165 153 149
0.141504 -0.069031 1.727978 116 105 106
0.128689 -0.034025 1.574980 171 189 188
0.137168 0.034923 1.113065 115 113 109
0.134938 -0.030169 1.649693 70 79 78
0.109088 0.340035 1.323613 121 128 132
0.122160 0.334129 1.485844 96 96 93
0.133823 0.091695 1.038987 96 96 93
0.109990 0.330565 1.317146 134 141 141
0.111092 0.352535 1.326468 135 142 143
0.149141 -0.160337 1.769747 156 139 127
0.122263 0.003503 1.385924 86 98 101
0.126384 0.196277 1.505611 98 99 101
0.143309 0.060583 1.139030 111 96 94
0.152692 0.213175 1.793671 100 85 67
0.132031 0.008450 1.540511 85 80 76
0.113285 0.322276 1.318544 139 134 127
0.132280 0.073073 1.228541 103 102 102
0.111642 0.323299 1.288786 95 99 96
0.115232 0.340847 1.328016 103 102 99
0.154630 -0.199992 1.772893 83 77 70
0.144966 -0.038907 1.635043 79 82 77
0.140662 0.326638 1.645571 136 159 160
0.147573 -0.022756 1.643195 100 123 135
0.110345 -0.025175 1.242829 121 127 121
0.124372 0.309289 1.370428 146 127 127
0.121834 0.375379 1.329250 122 117 115
0.122234 0.335777 1.328502 122 123 117
0.127252 0.305085 1.376225 163 162 162
0.124218 0.318975 1.339978 154 137 128
0.134045 0.305241 1.421261 125 113 104
0.144586 0.165085 1.495469 115 138 130
0.126141 0.318191 1.326120 117 114 104
0.124741 0.263213 1.270818 100 116 117
0.136232 0.299912 1.424709 112 126 127
0.159920 0.127828 1.468990 108 97 88
0.128563 0.316856 1.334632 146 137 124
0.128759 0.322169 1.325858 99 91 78
0.140167 0.296053 1.432549 164 179 180
0.146123 0.118002 1.041709 113 113 110
0.117860 0.256413 1.110342 128 133 134
0.133491 0.367095 1.334561 115 114 111
0.135546 0.364182 1.338948 124 128 129
0.142537 0.179835 1.349043 151 140 127
0.131678 0.276573 1.223818 141 139 126
0.190849 0.020832 1.526350 93 86 86
0.140459 0.311102 1.305029 103 93 83
0.143426 0.310160 1.316319 142 139 134
0.155456 0.275254 1.420589 151 144 141
0.145705 0.302776 1.291960 151 144 141
0.173798 0.305017 1.579088 132 131 130
0.122582 0.297735 1.120589 110 102 92
0.148426 0.307780 1.310165 86 83 72
0.132705 0.251676 1.107819 101 99 99
0.132705 0.251676 1.107819 76 86 89
0.135123 0.265851 1.140087 110 120 118
0.200384 0.252187 1.714160 107 109 103
0.181831 0.304927 1.559722 125 131 126
0.154529 0.134031 1.276694 106 101 98
0.175026 0.217804 1.458702 110 108 103
0.167635 0.276303 1.416608 118 136 134
0.161087 0.357233 1.347985 134 134 127
0.196650 0.332488 1.683988 151 135 126
0.180982 0.298740 1.494529 115 102 87
0.164973 0.329522 1.352520 122 139 138
0.163873 0.316517 1.342202 114 132 131
0.192922 0.329851 1.619805 143 140 135
0.142430 0.209848 1.187617 148 144 137
0.161648 0.095667 1.178329 116 118 117
0.179240 0.220627 1.446938 112 125 129
0.185713 0.250046 1.412629 131 126 125
0.187647 0.212645 1.499730 110 118 117
0.168445 0.353402 1.349553 70 95 117
0.171310 0.304173 1.366976 164 166 155
0.192722 0.299029 1.537648 124 114 110
0.170038 0.347441 1.350764 73 63 61
0.191600 0.240401 1.525413 114 115 116
0.189341 0.296039 1.481727 146 129 122
0.193080 0.295859 1.527686 136 151 147
0.185009 0.220741 1.434557 106 96 89
0.185009 0.220741 1.434557 111 120 122
0.180685 0.148629 1.406137 149 132 122
0.186126 0.223122 1.432804 174 154 144
0.198250 0.096445 1.314122 72 77 74
0.188043 0.123892 1.443658 100 115 111
0.187902 0.218935 1.434274 137 132 123
0.189709 0.139273 1.283701 140 139 128
0.211683 0.309435 1.611233 140 139 128
0.188512 0.302974 1.400616 132 147 147
0.193246 0.218627 1.434728 110 115 114
0.162117 0.259464 1.153045 105 104 99
0.195599 0.221605 1.434840 134 143 135
0.190186 0.104499 1.238377 134 143 135
0.192529 0.286988 1.435522 148 138 125
0.179830 0.125161 1.276791 136 142 133
0.197784 0.219150 1.435720 114 129 130
0.191250 0.329046 1.371120 105 117 118
0.198953 0.232587 1.424154 145 128 113
0.241078 0.026768 1.547555 167 181 178
0.235880 0.317892 1.557675 109 119 118
0.191471 0.356059 1.364074 77 82 81
0.189687 0.318594 1.350249 104 125 123
0.202535 0.218576 1.437792 137 139 129
0.200880 0.251511 1.418516 117 128 129
0.167778 0.201729 1.197782 103 115 114
0.238659 0.122850 1.395302 107 121 120
0.196189 0.311030 1.354678 143 143 147
0.229311 0.224480 1.602694 140 118 111
0.190866 0.061950 1.100822 89 93 86
0.194501 0.274090 1.359567 142 141 134
0.201680 0.355935 1.368695 120 111 104
0.213398 0.297680 1.428404 83 92 86
0.182033 0.234735 1.222657 91 97 98
0.211456 0.291642 1.388045 132 142 144
0.172707 0.298395 1.148997 151 143 130
0.209231 0.350864 1.377377 111 114 132
0.233017 0.250710 1.547697 125 122 123
0.164218 0.267195 1.060687 144 137 133
0.211698 0.148073 1.380188 135 129 124
0.212144 0.345617 1.373461 117 124 122
0.250862 0.098569 1.387250 121 124 118
0.233686 0.140595 1.463567 114 103 98
0.172092 0.210437 1.033664 168 165 153
0.198530 0.304488 1.216779 188 197 193
0.188111 0.281089 1.118512 132 117 116
0.208572 0.279473 1.225792 157 138 129
0.214896 0.284374 1.260524 117 110 101
0.235375 0.327551 1.380899 117 110 101
0.237155 0.359300 1.384880 69 82 81
0.203460 0.280207 1.183129 89 111 111
0.240426 0.327579 1.383812 104 114 115
0.281295 0.070400 1.345505 123 137 139
0.256968 0.352862 1.374642 139 153 151
0.195715 0.254661 1.039880 133 129 118
0.202372 0.255858 1.056601 133 129 118
0.231593 0.285691 1.196650 101 110 112
0.212650 0.212031 1.050155 131 146 147
0.278152 0.257866 1.353104 157 155 148
0.300164 0.347906 1.415255 175 172 172
0.282299 0.295661 1.318306 183 180 173
0.356953 0.092998 1.354464 140 131 125
0.369459 -0.032298 0.810249 126 125 121
0.524307 -0.090934 1.010730 76 87 89
0.524236 -0.090300 1.011340 83 89 89
0.531149 -0.075026 1.014395 131 122 113
0.502375 0.119643 1.091606 105 104 105
0.539013 0.225222 0.973338 122 138 137
